ply
format ascii 1.0
comment PCL generated
element vertex 1876
property float x
property float y
property float z
element camera 0
property float view_px
property float view_py
property float view_pz
property float x_axisx
property float x_axisy
property float x_axisz
property float y_axisx
property float y_axisy
property float y_axisz
property float z_axisx
property float z_axisy
property float z_axisz
property float focal
property float scalex
property float scaley
property float centerx
property float centery
property int viewportx
property int viewporty
property float k1
property float k2
end_header
641.4718 -23.250357 937
644.40375 -23.250357 937
647.33575 -23.250357 937
650.2677 -23.250357 937
653.19971 -23.250357 937
656.13165 -23.250357 937
658.36029 -23.225542 936
661.28912 -23.225542 936
664.21796 -23.225542 936
667.14679 -23.225542 936
670.07562 -23.225542 936
672.28546 -23.200729 935
675.21118 -23.200729 935
677.41162 -23.175915 934
680.33417 -23.175915 934
683.25677 -23.175915 934
686.17932 -23.175915 934
689.83978 -23.200729 935
692.7655 -23.200729 935
695.69122 -23.200729 935
698.61694 -23.200729 935
701.5426 -23.200729 935
705.2218 -23.225542 936
708.15063 -23.225542 936
711.07947 -23.225542 936
714.0083 -23.225542 936
716.93713 -23.225542 936
719.86597 -23.225542 936
722.79486 -23.225542 936
725.72369 -23.225542 936
727.87408 -23.200729 935
730.7998 -23.200729 935
733.72552 -23.200729 935
736.65118 -23.200729 935
739.5769 -23.200729 935
742.50262 -23.200729 935
745.42834 -23.200729 935
748.35406 -23.200729 935
750.47626 -23.175915 934
753.3988 -23.175915 934
756.32141 -23.175915 934
759.24402 -23.175915 934
762.16656 -23.175915 934
765.90839 -23.200729 935
770.47864 -23.250357 937
1362.6078 -38.758865 1562
1364.869 -38.684422 1559
1367.1115 -38.609982 1556
1367.5717 -38.485916 1551
1368.8855 -38.386658 1547
1369.2863 -38.262592 1542
1368.7645 -38.113712 1536
1369.0996 -37.989643 1531
1369.4033 -37.865574 1526
1369.6759 -37.741508 1521
1369.917 -37.617439 1516
1369.2201 -37.468555 1510
1368.4857 -37.319675 1504
1367.7137 -37.170795 1498
1366.9042 -37.021912 1492
1366.9764 -36.897842 1487
1367.0173 -36.773777 1482
1367.0269 -36.649708 1477
1367.0052 -36.525639 1472
1366.9523 -36.401573 1467
1366.868 -36.277504 1462
1366.7526 -36.153435 1457
1367.5469 -36.05418 1453
1367.3718 -35.930111 1448
1368.113 -35.83086 1444
1367.8787 -35.706791 1439
1368.5665 -35.607536 1435
1367.3158 -35.458656 1429
1367.9474 -35.359402 1425
1367.5911 -35.235332 1420
1368.1694 -35.136078 1416
1367.7534 -35.012009 1411
1368.2787 -34.912754 1407
1367.8033 -34.788689 1402
1368.2754 -34.689434 1398
1367.7405 -34.565365 1393
1367.1744 -34.441296 1388
1367.5651 -34.342041 1384
1366.9396 -34.217972 1379
1367.277 -34.118721 1375
1367.5896 -34.019466 1371
-672.30463 -21.385021 954
-671.42426 -21.452271 957
-669.82666 -21.497103 959
-668.21649 -21.541933 961
-666.59381 -21.586765 963
-664.95862 -21.631599 965
-661.93903 -21.631599 965
-659.60229 -21.654015 966
-657.25928 -21.676432 967
-654.90991 -21.698847 968
-651.88098 -21.698847 968
-649.52228 -21.721264 969
-646.49017 -21.721264 969
-643.45807 -21.721264 969
-641.08691 -21.743679 970
-638.0517 -21.743679 970
-635.01642 -21.743679 970
-631.9812 -21.743679 970
-629.59436 -21.766094 971
-626.55603 -21.766094 971
-623.51764 -21.766094 971
-620.47931 -21.766094 971
-616.80505 -21.743679 970
-613.76984 -21.743679 970
-610.10492 -21.721264 969
-607.07281 -21.721264 969
-604.04071 -21.721264 969
-601.00861 -21.721264 969
-597.9765 -21.721264 969
-595.55841 -21.743679 970
-592.52319 -21.743679 970
-589.48792 -21.743679 970
-586.4527 -21.743679 970
-583.41748 -21.743679 970
-580.38226 -21.743679 970
-576.75177 -21.721264 969
-573.71967 -21.721264 969
-570.09863 -21.698847 968
-567.06964 -21.698847 968
-564.04065 -21.698847 968
-561.01172 -21.698847 968
-557.98273 -21.698847 968
-554.95374 -21.698847 968
-551.92474 -21.698847 968
-548.89581 -21.698847 968
-546.43073 -21.721264 969
-543.39862 -21.721264 969
-540.36652 -21.721264 969
-536.77991 -21.698847 968
-533.75092 -21.698847 968
-530.72192 -21.698847 968
-528.2381 -21.721264 969
-525.20599 -21.721264 969
-521.63501 -21.698847 968
-518.60602 -21.698847 968
-516.10968 -21.721264 969
-513.07758 -21.721264 969
-510.04547 -21.721264 969
-507.01337 -21.721264 969
-503.98126 -21.721264 969
-500.43219 -21.698847 968
-497.4032 -21.698847 968
-494.37424 -21.698847 968
-491.85284 -21.721264 969
-488.31628 -21.698847 968
-485.28729 -21.698847 968
-482.25833 -21.698847 968
-479.22934 -21.698847 968
-476.20038 -21.698847 968
-473.17139 -21.698847 968
-469.65677 -21.676432 967
-467.11343 -21.698847 968
-464.08447 -21.698847 968
-461.05551 -21.698847 968
-458.02652 -21.698847 968
-454.99756 -21.698847 968
-451.96857 -21.698847 968
-448.93961 -21.698847 968
-445.91061 -21.698847 968
-442.88165 -21.698847 968
-439.85266 -21.698847 968
-436.37247 -21.676432 967
-433.34662 -21.676432 967
-430.32077 -21.676432 967
-427.29492 -21.676432 967
-424.26907 -21.676432 967
-421.24323 -21.676432 967
-417.78488 -21.654015 966
-415.19153 -21.676432 967
-412.16568 -21.676432 967
-409.56293 -21.698847 968
-406.53397 -21.698847 968
-403.50497 -21.698847 968
-400.47601 -21.698847 968
-397.03644 -21.676432 967
-394.01059 -21.676432 967
-390.98474 -21.676432 967
-387.95889 -21.676432 967
-384.535 -21.654015 966
-381.51227 -21.654015 966
-378.48956 -21.654015 966
-375.07816 -21.631599 965
-372.05856 -21.631599 965
-369.03897 -21.631599 965
-366.01938 -21.631599 965
-362.99979 -21.631599 965
-359.98019 -21.631599 965
-356.9606 -21.631599 965
-353.94104 -21.631599 965
-351.2851 -21.654015 966
-348.26239 -21.654015 966
-345.23965 -21.654015 966
-342.21695 -21.654015 966
-339.19424 -21.654015 966
-336.17151 -21.654015 966
-333.1488 -21.654015 966
-329.78433 -21.631599 965
-326.42612 -21.609184 964
-323.40967 -21.609184 964
-320.39322 -21.609184 964
-317.37674 -21.609184 964
-314.36029 -21.609184 964
-311.34384 -21.609184 964
-308.32736 -21.609184 964
-305.62762 -21.631599 965
-302.60803 -21.631599 965
-299.58844 -21.631599 965
-296.26154 -21.609184 964
-293.24509 -21.609184 964
-289.92755 -21.586765 963
-286.91422 -21.586765 963
-283.90088 -21.586765 963
-280.88754 -21.586765 963
-277.58569 -21.56435 962
-274.8609 -21.586765 963
-271.84756 -21.586765 963
-268.55508 -21.56435 962
-265.54489 -21.56435 962
-262.53467 -21.56435 962
-259.52448 -21.56435 962
-256.51428 -21.56435 962
-253.50407 -21.56435 962
-250.75424 -21.586765 963
-247.74092 -21.586765 963
-244.72758 -21.586765 963
-241.71426 -21.586765 963
-238.70093 -21.586765 963
-235.44287 -21.56435 962
-232.43266 -21.56435 962
-229.42247 -21.56435 962
-226.41226 -21.56435 962
-223.16983 -21.541933 961
-220.16275 -21.541933 961
-217.15569 -21.541933 961
-214.14861 -21.541933 961
-211.14154 -21.541933 961
-208.13446 -21.541933 961
-205.34085 -21.56435 962
-202.12033 -21.541933 961
-199.11327 -21.541933 961
-196.10619 -21.541933 961
-193.09912 -21.541933 961
-190.09204 -21.541933 961
-187.08498 -21.541933 961
-184.0779 -21.541933 961
-181.07083 -21.541933 961
-177.87846 -21.519518 960
-174.87453 -21.519518 960
-171.87057 -21.519518 960
-168.69072 -21.497103 959
-165.68991 -21.497103 959
-162.85875 -21.519518 960
-159.85481 -21.519518 960
-156.85088 -21.519518 960
-153.84692 -21.519518 960
-150.68584 -21.497103 959
-147.68503 -21.497103 959
-144.68422 -21.497103 959
-141.53566 -21.474686 958
-138.39337 -21.452271 957
-135.3988 -21.452271 957
-132.2659 -21.429853 956
-129.4097 -21.452271 957
-126.28305 -21.429853 956
8.3572779 -21.497103 959
11.334404 -21.452271 957
14.313986 -21.429853 956
17.305412 -21.429853 956
20.296839 -21.429853 956
23.288265 -21.429853 956
26.279694 -21.429853 956
29.27112 -21.429853 956
32.262547 -21.429853 956
35.217094 -21.407436 955
38.205391 -21.407436 955
41.193691 -21.407436 955
44.135723 -21.385021 954
47.120892 -21.385021 954
50.10606 -21.385021 954
53.091225 -21.385021 954
56.076393 -21.385021 954
58.999657 -21.362604 953
61.981697 -21.362604 953
64.963737 -21.362604 953
67.94577 -21.362604 953
70.927811 -21.362604 953
73.909851 -21.362604 953
76.891891 -21.362604 953
79.957741 -21.385021 954
82.855972 -21.362604 953
85.92807 -21.385021 954
88.913239 -21.385021 954
91.898407 -21.385021 954
94.883575 -21.385021 954
97.766167 -21.362604 953
100.7482 -21.362604 953
103.6214 -21.340189 952
106.6003 -21.340189 952
109.57922 -21.340189 952
112.55813 -21.340189 952
115.53703 -21.340189 952
118.64043 -21.362604 953
121.62247 -21.362604 953
124.60452 -21.362604 953
127.45267 -21.340189 952
130.29457 -21.317772 951
133.13022 -21.295357 950
136.10287 -21.295357 950
139.07553 -21.295357 950
141.89865 -21.272942 949
144.86818 -21.272942 949
147.83769 -21.272942 949
150.80722 -21.272942 949
153.93878 -21.295357 950
156.91144 -21.295357 950
159.88408 -21.295357 950
162.85674 -21.295357 950
165.82939 -21.295357 950
168.80205 -21.295357 950
171.59387 -21.272942 949
174.5634 -21.272942 949
177.53293 -21.272942 949
180.50244 -21.272942 949
183.27864 -21.250525 948
186.44148 -21.272942 949
189.41101 -21.272942 949
192.38054 -21.272942 949
195.35005 -21.272942 949
198.31958 -21.272942 949
201.28911 -21.272942 949
204.25862 -21.272942 949
207.22815 -21.272942 949
210.19768 -21.272942 949
213.16719 -21.272942 949
216.13672 -21.272942 949
219.10623 -21.272942 949
222.07576 -21.272942 949
225.04529 -21.272942 949
228.0148 -21.272942 949
230.98433 -21.272942 949
233.70731 -21.250525 948
236.67371 -21.250525 948
239.64011 -21.250525 948
242.35059 -21.228109 947
245.31386 -21.228109 947
248.27711 -21.228109 947
251.24039 -21.228109 947
253.93523 -21.20569 946
256.89536 -21.20569 946
259.8555 -21.20569 946
262.81564 -21.20569 946
265.77576 -21.20569 946
268.7359 -21.20569 946
271.69604 -21.20569 946
274.65619 -21.20569 946
277.6163 -21.20569 946
280.57645 -21.20569 946
283.53659 -21.20569 946
286.19385 -21.183275 945
289.45685 -21.20569 946
292.41699 -21.20569 946
295.37714 -21.20569 946
298.33725 -21.20569 946
300.97888 -21.183275 945
303.93588 -21.183275 945
306.89288 -21.183275 945
309.84991 -21.183275 945
312.80692 -21.183275 945
315.42978 -21.16086 944
318.38367 -21.16086 944
321.33755 -21.16086 944
324.29141 -21.16086 944
327.2453 -21.16086 944
330.19916 -21.16086 944
333.15305 -21.16086 944
335.75085 -21.138443 943
338.70163 -21.138443 943
341.65237 -21.138443 943
344.2377 -21.116028 942
347.1853 -21.116028 942
350.13293 -21.116028 942
353.08054 -21.116028 942
356.02817 -21.116028 942
358.9758 -21.116028 942
361.9234 -21.116028 942
364.87103 -21.116028 942
367.81863 -21.116028 942
370.37265 -21.093611 941
373.31714 -21.093611 941
376.26163 -21.093611 941
379.20612 -21.093611 941
382.1506 -21.093611 941
385.09509 -21.093611 941
387.62723 -21.071196 940
390.5686 -21.071196 940
393.50995 -21.071196 940
396.45132 -21.071196 940
399.81757 -21.093611 941
402.76205 -21.093611 941
405.27539 -21.071196 940
408.21677 -21.071196 940
411.59552 -21.093611 941
414.54001 -21.093611 941
417.4845 -21.093611 941
420.42899 -21.093611 941
423.37347 -21.093611 941
426.31796 -21.093611 941
429.26245 -21.093611 941
431.74765 -21.071196 940
434.689 -21.071196 940
437.16483 -21.048777 939
440.10306 -21.048777 939
442.56943 -21.026361 938
445.97949 -21.048777 939
448.91772 -21.048777 939
451.85596 -21.048777 939
454.79419 -21.048777 939
457.73242 -21.048777 939
460.67065 -21.048777 939
463.60889 -21.048777 939
466.54712 -21.048777 939
468.98535 -21.026361 938
471.92044 -21.026361 938
474.85553 -21.026361 938
477.79065 -21.026361 938
480.72574 -21.026361 938
483.66086 -21.026361 938
486.07721 -21.003946 937
489.00919 -21.003946 937
491.94116 -21.003946 937
494.87314 -21.003946 937
497.80508 -21.003946 937
500.73706 -21.003946 937
503.66904 -21.003946 937
506.60101 -21.003946 937
510.07678 -21.026361 938
512.46497 -21.003946 937
515.94696 -21.026361 938
518.88208 -21.026361 938
521.8172 -21.026361 938
524.75226 -21.026361 938
527.68738 -21.026361 938
531.18823 -21.048777 939
533.55762 -21.026361 938
536.49268 -21.026361 938
539.4278 -21.026361 938
542.36292 -21.026361 938
545.29797 -21.026361 938
547.64862 -21.003946 937
550.58063 -21.003946 937
552.92188 -20.981529 936
555.85071 -20.981529 936
558.77954 -20.981529 936
561.70844 -20.981529 936
564.63727 -20.981529 936
567.5661 -20.981529 936
570.49493 -20.981529 936
573.42377 -20.981529 936
576.3526 -20.981529 936
579.28149 -20.981529 936
582.21033 -20.981529 936
585.13916 -20.981529 936
588.06799 -20.981529 936
590.36548 -20.959114 935
593.2912 -20.959114 935
596.21686 -20.959114 935
598.50177 -20.936697 934
601.42438 -20.936697 934
604.99402 -20.959114 935
607.91974 -20.959114 935
610.84546 -20.959114 935
613.77118 -20.959114 935
616.6969 -20.959114 935
619.62262 -20.959114 935
622.54834 -20.959114 935
625.47406 -20.959114 935
628.39978 -20.959114 935
632.00067 -20.981529 936
634.9295 -20.981529 936
637.85834 -20.981529 936
640.78723 -20.981529 936
643.71606 -20.981529 936
646.6449 -20.981529 936
649.57373 -20.981529 936
652.50256 -20.981529 936
655.4314 -20.981529 936
657.65692 -20.959114 935
660.58264 -20.959114 935
662.79865 -20.936697 934
665.72125 -20.936697 934
668.64386 -20.936697 934
671.56641 -20.936697 934
673.76685 -20.914282 933
676.68634 -20.914282 933
679.60577 -20.914282 933
682.52521 -20.914282 933
685.4447 -20.914282 933
688.36414 -20.914282 933
691.28363 -20.914282 933
694.20306 -20.914282 933
697.86969 -20.936697 934
700.7923 -20.936697 934
703.71484 -20.936697 934
706.63745 -20.936697 934
709.56006 -20.936697 934
713.24548 -20.959114 935
716.1712 -20.959114 935
718.32782 -20.936697 934
722.02264 -20.959114 935
724.94836 -20.959114 935
727.87408 -20.959114 935
730.01813 -20.936697 934
732.94073 -20.936697 934
735.86334 -20.936697 934
738.78589 -20.936697 934
741.7085 -20.936697 934
744.63104 -20.936697 934
746.7533 -20.914282 933
749.67273 -20.914282 933
751.78558 -20.891867 932
754.7019 -20.891867 932
757.61823 -20.891867 932
760.53455 -20.891867 932
763.45087 -20.891867 932
1361.7355 -34.991634 1561
1363.9935 -34.924385 1558
1366.2329 -34.857136 1555
1367.5717 -34.767471 1551
1368.8855 -34.677807 1547
1369.2863 -34.565723 1542
1368.7645 -34.431229 1536
1369.9939 -34.341564 1532
1370.3008 -34.229481 1527
1369.6759 -34.094986 1521
1369.0134 -33.960487 1515
1369.2201 -33.848408 1510
1368.4857 -33.713913 1504
1367.7137 -33.579414 1498
1367.8203 -33.467335 1493
1367.8958 -33.355251 1488
1367.9397 -33.243172 1483
1367.9525 -33.131092 1478
1367.0052 -32.996593 1472
1366.9523 -32.884514 1467
1366.868 -32.772434 1462
1366.7526 -32.660351 1457
1367.5469 -32.570686 1453
1367.3718 -32.458607 1448
1368.113 -32.368942 1444
1368.8292 -32.279278 1440
1368.5665 -32.167198 1435
1368.2727 -32.055115 1430
1367.9474 -31.943035 1425
1367.5911 -31.830954 1420
1368.1694 -31.741289 1416
1368.7229 -31.651625 1412
1368.2787 -31.539545 1407
1367.8033 -31.427464 1402
1368.2754 -31.337799 1398
1367.7405 -31.225718 1393
1368.1594 -31.136051 1389
1367.5651 -31.023972 1384
1366.9396 -30.91189 1379
1367.277 -30.822227 1375
1367.5896 -30.732561 1371
-673.16626 -19.037798 951
-672.30463 -19.097855 954
-670.72266 -19.137892 956
-669.12817 -19.177929 958
-667.52112 -19.217966 960
-665.20941 -19.237986 961
-663.58051 -19.278023 963
-661.25305 -19.298042 964
-658.91943 -19.31806 965
-655.89984 -19.31806 965
-652.88025 -19.31806 965
-650.53412 -19.338079 966
-647.51141 -19.338079 966
-644.48871 -19.338079 966
-641.466 -19.338079 966
-639.10419 -19.358099 967
-636.07831 -19.358099 967
-633.70709 -19.378117 968
-630.67816 -19.378117 968
-627.64917 -19.378117 968
-624.62018 -19.378117 968
-621.59119 -19.378117 968
-618.56226 -19.378117 968
-614.8974 -19.358099 967
-611.87158 -19.358099 967
-608.21606 -19.338079 966
-605.19336 -19.338079 966
-602.17065 -19.338079 966
-599.14795 -19.338079 966
-596.12518 -19.338079 966
-593.71649 -19.358099 967
-590.69061 -19.358099 967
-587.66479 -19.358099 967
-584.63892 -19.358099 967
-582.21454 -19.378117 968
-578.58728 -19.358099 967
-575.5614 -19.358099 967
-571.94348 -19.338079 966
-568.33179 -19.31806 965
-565.31219 -19.31806 965
-562.2926 -19.31806 965
-559.27301 -19.31806 965
-556.25342 -19.31806 965
-553.23389 -19.31806 965
-550.21429 -19.31806 965
-547.76172 -19.338079 966
-544.73901 -19.338079 966
-541.71631 -19.338079 966
-538.6936 -19.338079 966
-535.11633 -19.31806 965
-532.09674 -19.31806 965
-529.07715 -19.31806 965
-526.60272 -19.338079 966
-524.12201 -19.358099 967
-520.55725 -19.338079 966
-517.53455 -19.338079 966
-514.51184 -19.338079 966
-511.48914 -19.338079 966
-508.99277 -19.358099 967
-505.96695 -19.358099 967
-502.42096 -19.338079 966
-499.39825 -19.338079 966
-495.86169 -19.31806 965
-493.35281 -19.338079 966
-490.33011 -19.338079 966
-486.80292 -19.31806 965
-483.78333 -19.31806 965
-480.76373 -19.31806 965
-477.74414 -19.31806 965
-475.21652 -19.338079 966
-471.70499 -19.31806 965
-468.68539 -19.31806 965
-465.6658 -19.31806 965
-462.64621 -19.31806 965
-459.62662 -19.31806 965
-456.60703 -19.31806 965
-453.1174 -19.298042 964
-450.10092 -19.298042 964
-447.08447 -19.298042 964
-444.06802 -19.298042 964
-441.50909 -19.31806 965
-438.4895 -19.31806 965
-435.01865 -19.298042 964
-432.00217 -19.298042 964
-429.43073 -19.31806 965
-426.41113 -19.31806 965
-423.39157 -19.31806 965
-419.93634 -19.298042 964
-416.91989 -19.298042 964
-413.90341 -19.298042 964
-411.3132 -19.31806 965
-408.29361 -19.31806 965
-405.27402 -19.31806 965
-402.25446 -19.31806 965
-398.82114 -19.298042 964
-395.80469 -19.298042 964
-392.78824 -19.298042 964
-389.77176 -19.298042 964
-386.75531 -19.298042 964
-383.34076 -19.278023 963
-379.93253 -19.258005 962
-377.31412 -19.278023 963
-373.91211 -19.258005 962
-370.90192 -19.258005 962
-367.89172 -19.258005 962
-364.8815 -19.258005 962
-361.87131 -19.258005 962
-358.86111 -19.258005 962
-355.85092 -19.258005 962
-353.20746 -19.278023 963
-350.19415 -19.278023 963
-346.82031 -19.258005 962
-343.81009 -19.258005 962
-340.7999 -19.258005 962
-337.7897 -19.258005 962
-334.77951 -19.258005 962
-332.11417 -19.278023 963
-328.75909 -19.258005 962
-325.7489 -19.258005 962
-322.73871 -19.258005 962
-319.72849 -19.258005 962
-316.71829 -19.258005 962
-313.7081 -19.258005 962
-310.69791 -19.258005 962
-307.68768 -19.258005 962
-304.67749 -19.258005 962
-301.6673 -19.258005 962
-298.65707 -19.258005 962
-295.64688 -19.258005 962
-292.33249 -19.237986 961
-289.02435 -19.217966 960
-286.02042 -19.217966 960
-283.01648 -19.217966 960
-280.01251 -19.217966 960
-277.00858 -19.217966 960
-274.00464 -19.217966 960
-271.0007 -19.217966 960
-267.99677 -19.217966 960
-264.9928 -19.217966 960
-261.98886 -19.217966 960
-258.98492 -19.217966 960
-255.98099 -19.217966 960
-252.97704 -19.217966 960
-249.9731 -19.217966 960
-246.96915 -19.217966 960
-243.96521 -19.217966 960
-240.96127 -19.217966 960
-237.70944 -19.197948 959
-234.95338 -19.217966 960
-231.70781 -19.197948 959
-228.707 -19.197948 959
-225.70619 -19.197948 959
-222.70537 -19.197948 959
-219.47548 -19.177929 958
-216.47778 -19.177929 958
-213.4801 -19.177929 958
-210.48242 -19.177929 958
-207.48474 -19.177929 958
-204.48705 -19.177929 958
-201.48935 -19.177929 958
-198.49167 -19.177929 958
-195.49399 -19.177929 958
-192.49629 -19.177929 958
-189.49861 -19.177929 958
-186.50093 -19.177929 958
-183.50325 -19.177929 958
-180.50555 -19.177929 958
-177.50787 -19.177929 958
-174.32803 -19.157911 957
-171.33348 -19.157911 957
-168.33893 -19.157911 957
-165.34436 -19.157911 957
-162.34981 -19.157911 957
-159.35526 -19.157911 957
-156.3607 -19.157911 957
-153.36615 -19.157911 957
-150.21446 -19.137892 956
-147.22304 -19.137892 956
-144.08073 -19.117874 955
-141.09244 -19.117874 955
-137.95953 -19.097855 954
-134.97437 -19.097855 954
-131.85085 -19.077835 953
-128.8688 -19.077835 953
-125.88676 -19.077835 953
8.3311329 -19.137892 956
11.298873 -19.097855 954
14.269068 -19.077835 953
17.251106 -19.077835 953
20.233145 -19.077835 953
23.215185 -19.077835 953
26.197224 -19.077835 953
29.179262 -19.077835 953
32.161301 -19.077835 953
35.106464 -19.057817 952
38.085373 -19.057817 952
41.064285 -19.057817 952
44.043194 -19.057817 952
47.022102 -19.057817 952
49.94849 -19.037798 951
52.924274 -19.037798 951
55.900055 -19.037798 951
58.875835 -19.037798 951
61.851616 -19.037798 951
64.759232 -19.01778 950
67.73188 -19.01778 950
70.704536 -19.01778 950
73.677185 -19.01778 950
76.649834 -19.01778 950
79.62249 -19.01778 950
82.595139 -19.01778 950
85.657867 -19.037798 951
88.540443 -19.01778 950
91.513092 -19.01778 950
94.485748 -19.01778 950
97.355812 -18.997761 949
100.43105 -19.01778 950
103.4037 -19.01778 950
106.26438 -18.997761 949
109.2339 -18.997761 949
112.20342 -18.997761 949
115.17294 -18.997761 949
118.14247 -18.997761 949
121.11199 -18.997761 949
124.08151 -18.997761 949
126.91716 -18.977741 948
129.88354 -18.977741 948
132.84995 -18.977741 948
135.67307 -18.957724 947
138.63634 -18.957724 947
141.59959 -18.957724 947
144.41022 -18.937706 946
147.52612 -18.957724 947
150.33047 -18.937706 946
153.45265 -18.957724 947
156.41592 -18.957724 947
159.37918 -18.957724 947
162.34245 -18.957724 947
165.30571 -18.957724 947
168.26898 -18.957724 947
171.23224 -18.957724 947
174.19551 -18.957724 947
177.15877 -18.957724 947
179.93184 -18.937706 946
182.89197 -18.937706 946
185.85211 -18.937706 946
188.81224 -18.937706 946
191.77237 -18.937706 946
194.73251 -18.937706 946
197.69264 -18.937706 946
200.65279 -18.937706 946
203.61292 -18.937706 946
206.57306 -18.937706 946
209.5332 -18.937706 946
212.49333 -18.937706 946
215.45348 -18.937706 946
218.4136 -18.937706 946
221.37373 -18.937706 946
224.33388 -18.937706 946
227.29401 -18.937706 946
230.01074 -18.917686 945
232.96774 -18.917686 945
235.92474 -18.917686 945
238.62898 -18.897667 944
241.58286 -18.897667 944
244.53674 -18.897667 944
247.22842 -18.877649 943
250.17918 -18.877649 943
253.39836 -18.897667 944
256.35223 -18.897667 944
259.30612 -18.897667 944
261.98218 -18.877649 943
264.93292 -18.877649 943
267.88367 -18.877649 943
270.83441 -18.877649 943
273.78516 -18.877649 943
276.7359 -18.877649 943
279.68665 -18.877649 943
282.33771 -18.85763 942
285.28531 -18.85763 942
288.23294 -18.85763 942
291.18054 -18.85763 942
294.12817 -18.85763 942
297.07578 -18.85763 942
300.02341 -18.85763 942
302.97104 -18.85763 942
305.91864 -18.85763 942
308.86627 -18.85763 942
311.81387 -18.85763 942
314.76151 -18.85763 942
317.37183 -18.837612 941
320.31631 -18.837612 941
323.60437 -18.85763 942
326.20529 -18.837612 941
329.14981 -18.837612 941
331.74139 -18.817593 940
334.68274 -18.817593 940
337.62411 -18.817593 940
340.56546 -18.817593 940
343.50684 -18.817593 940
346.07962 -18.797573 939
349.01785 -18.797573 939
351.95609 -18.797573 939
354.89432 -18.797573 939
357.83255 -18.797573 939
360.77078 -18.797573 939
363.70898 -18.797573 939
366.64722 -18.797573 939
369.58545 -18.797573 939
372.12698 -18.777555 938
375.06207 -18.777555 938
377.99719 -18.777555 938
380.93228 -18.777555 938
383.8674 -18.777555 938
386.39011 -18.757536 937
389.32208 -18.757536 937
392.25406 -18.757536 937
395.18604 -18.757536 937
398.11801 -18.757536 937
401.478 -18.777555 938
403.98196 -18.757536 937
406.91394 -18.757536 937
409.84589 -18.757536 937
412.77786 -18.757536 937
416.1535 -18.777555 938
419.08859 -18.777555 938
422.02371 -18.777555 938
424.9588 -18.777555 938
427.89389 -18.777555 938
430.82901 -18.777555 938
433.7641 -18.777555 938
436.23367 -18.757536 937
439.16562 -18.757536 937
441.62579 -18.737516 936
444.55463 -18.737516 936
447.48349 -18.737516 936
450.41232 -18.737516 936
453.34119 -18.737516 936
456.27002 -18.737516 936
459.19885 -18.737516 936
462.62143 -18.757536 937
465.55341 -18.757536 937
467.98538 -18.737516 936
470.91425 -18.737516 936
473.84308 -18.737516 936
476.77191 -18.737516 936
479.70078 -18.737516 936
482.11398 -18.717499 935
485.0397 -18.717499 935
487.96542 -18.717499 935
490.36609 -18.697481 934
493.28867 -18.697481 934
496.21127 -18.697481 934
499.13385 -18.697481 934
502.05643 -18.697481 934
504.979 -18.697481 934
508.44543 -18.717499 935
510.82419 -18.697481 934
514.29688 -18.717499 935
517.2226 -18.717499 935
520.14832 -18.717499 935
523.07404 -18.717499 935
525.99969 -18.717499 935
528.92542 -18.717499 935
531.85114 -18.717499 935
534.77686 -18.717499 935
537.70258 -18.717499 935
540.6283 -18.717499 935
543.55402 -18.717499 935
545.8952 -18.697481 934
548.81781 -18.697481 934
551.14966 -18.677462 933
554.06915 -18.677462 933
556.98859 -18.677462 933
559.90802 -18.677462 933
562.82751 -18.677462 933
565.74695 -18.677462 933
568.66644 -18.677462 933
571.58588 -18.677462 933
574.50531 -18.677462 933
577.4248 -18.677462 933
580.34424 -18.677462 933
583.26373 -18.677462 933
586.18317 -18.677462 933
589.1026 -18.677462 933
591.38757 -18.657442 932
594.30389 -18.657442 932
597.22021 -18.657442 932
600.13654 -18.657442 932
603.05286 -18.657442 932
605.96918 -18.657442 932
608.8855 -18.657442 932
611.80182 -18.657442 932
614.7182 -18.657442 932
617.63452 -18.657442 932
620.55084 -18.657442 932
623.46716 -18.657442 932
627.05554 -18.677462 933
629.97504 -18.677462 933
632.89447 -18.677462 933
635.8139 -18.677462 933
639.41797 -18.697481 934
642.34058 -18.697481 934
645.26312 -18.697481 934
648.18573 -18.697481 934
651.10834 -18.697481 934
654.03088 -18.697481 934
656.95349 -18.697481 934
659.16956 -18.677462 933
661.37939 -18.657442 932
663.58301 -18.637424 931
666.49622 -18.637424 931
668.69031 -18.617405 930
671.6004 -18.617405 930
674.5105 -18.617405 930
677.42053 -18.617405 930
680.33063 -18.617405 930
683.24066 -18.617405 930
686.15076 -18.617405 930
689.06079 -18.617405 930
692.71497 -18.637424 931
695.62817 -18.637424 931
698.54138 -18.637424 931
701.45459 -18.637424 931
704.3678 -18.637424 931
707.28094 -18.637424 931
710.95697 -18.657442 932
713.87329 -18.657442 932
716.78967 -18.657442 932
719.70599 -18.657442 932
722.62231 -18.657442 932
725.53864 -18.657442 932
727.67334 -18.637424 931
730.58655 -18.637424 931
733.49976 -18.637424 931
736.41296 -18.637424 931
739.32617 -18.637424 931
742.23938 -18.637424 931
744.35211 -18.617405 930
747.26221 -18.617405 930
750.1723 -18.617405 930
752.27258 -18.597387 929
755.1795 -18.597387 929
758.08649 -18.597387 929
760.99341 -18.597387 929
764.72266 -18.617405 930
768.45813 -18.637424 931
1344.1715 -31.069046 1552
1353.374 -31.169142 1557
1359.1184 -31.189159 1558
1363.118 -31.169142 1557
1365.3542 -31.109083 1554
1366.6899 -31.029009 1550
1368.0006 -30.948935 1546
1369.2863 -30.868858 1542
1369.6558 -30.768764 1537
1369.9939 -30.668671 1532
1370.3008 -30.568577 1527
1370.5764 -30.468485 1522
1369.917 -30.348373 1516
1368.3134 -30.208242 1509
1368.4857 -30.108149 1504
1367.7137 -29.988037 1498
1367.8203 -29.887943 1493
1368.8149 -29.807867 1489
1368.8621 -29.707773 1484
1368.8781 -29.607681 1479
1368.8625 -29.507587 1474
1367.884 -29.387474 1468
1367.803 -29.28738 1463
1367.6906 -29.187286 1458
1367.5469 -29.087193 1453
1368.3162 -29.00712 1449
1368.113 -28.907026 1444
1368.8292 -28.82695 1440
1368.5665 -28.726856 1435
1368.2727 -28.626762 1430
1367.9474 -28.52667 1425
1368.5541 -28.446594 1421
1368.1694 -28.3465 1416
1368.7229 -28.266428 1412
1369.2512 -28.186352 1408
1368.7791 -28.086258 1403
1369.2542 -28.006182 1399
1368.7224 -27.906088 1394
1368.1594 -27.805996 1389
1367.5651 -27.705902 1384
1367.9308 -27.625828 1380
1368.2714 -27.545752 1376
1368.587 -27.465677 1372
-672.45844 -16.740204 950
-671.59991 -16.793066 953
-670.72266 -16.84593 956
-669.12817 -16.881172 958
-666.82581 -16.898794 959
-664.51715 -16.916416 960
-662.89142 -16.951658 962
-660.56714 -16.969278 963
-657.55383 -16.969278 963
-655.22015 -16.9869 964
-652.20367 -16.9869 964
-649.86066 -17.004522 965
-646.84113 -17.004522 965
-643.82153 -17.004522 965
-640.80194 -17.004522 965
-637.78235 -17.004522 965
-635.42053 -17.022142 966
-632.39783 -17.022142 966
-629.37512 -17.022142 966
-626.35242 -17.022142 966
-623.97498 -17.039764 967
-620.30695 -17.022142 966
-617.28424 -17.022142 966
-614.26154 -17.022142 966
-610.60602 -17.004522 965
-607.58643 -17.004522 965
-604.56683 -17.004522 965
-601.54724 -17.004522 965
-598.52771 -17.004522 965
-595.50812 -17.004522 965
-592.48853 -17.004522 965
-590.07977 -17.022142 966
-587.05707 -17.022142 966
-583.42975 -17.004522 965
-581.0116 -17.022142 966
-577.98889 -17.022142 966
-574.37097 -17.004522 965
-570.75928 -16.9869 964
-567.74286 -16.9869 964
-564.72638 -16.9869 964
-561.7099 -16.9869 964
-558.69348 -16.9869 964
-555.677 -16.9869 964
-552.66052 -16.9869 964
-549.6441 -16.9869 964
-546.62762 -16.9869 964
-544.17511 -17.004522 965
-541.15552 -17.004522 965
-537.57825 -16.9869 964
-534.56177 -16.9869 964
-531.54535 -16.9869 964
-528.52887 -16.9869 964
-525.51239 -16.9869 964
-523.03796 -17.004522 965
-520.01837 -17.004522 965
-516.99878 -17.004522 965
-513.97919 -17.004522 965
-510.95963 -17.004522 965
-507.94003 -17.004522 965
-504.92044 -17.004522 965
-501.90085 -17.004522 965
-498.36429 -16.9869 964
-495.34781 -16.9869 964
-492.8421 -17.004522 965
-489.31491 -16.9869 964
-486.29843 -16.9869 964
-483.28198 -16.9869 964
-480.26553 -16.9869 964
-476.75403 -16.969278 963
-474.2326 -16.9869 964
-471.21616 -16.9869 964
-468.19968 -16.9869 964
-464.70071 -16.969278 963
-462.16678 -16.9869 964
-459.1503 -16.9869 964
-455.66071 -16.969278 963
-452.6474 -16.969278 963
-449.16714 -16.951658 962
-446.15695 -16.951658 962
-443.14673 -16.951658 962
-440.59406 -16.969278 963
-437.58075 -16.969278 963
-434.56741 -16.969278 963
-431.55408 -16.969278 963
-428.54074 -16.969278 963
-425.5274 -16.969278 963
-422.5141 -16.969278 963
-419.50076 -16.969278 963
-416.05493 -16.951658 962
-413.47409 -16.969278 963
-410.46075 -16.969278 963
-407.44742 -16.969278 963
-404.43408 -16.969278 963
-401.42075 -16.969278 963
-398.40741 -16.969278 963
-394.98352 -16.951658 962
-391.97333 -16.951658 962
-388.9631 -16.951658 962
-385.95291 -16.951658 962
-382.94272 -16.951658 962
-379.53757 -16.934036 961
-376.53049 -16.934036 961
-373.52341 -16.934036 961
-370.51636 -16.934036 961
-367.12686 -16.916416 960
-364.12292 -16.916416 960
-361.49512 -16.934036 961
-358.48807 -16.934036 961
-355.11108 -16.916416 960
-352.47391 -16.934036 961
-349.46686 -16.934036 961
-346.45978 -16.934036 961
-343.4527 -16.934036 961
-340.44562 -16.934036 961
-337.43857 -16.934036 961
-334.43149 -16.934036 961
-331.42441 -16.934036 961
-328.41733 -16.934036 961
-325.41028 -16.934036 961
-322.06772 -16.916416 960
-319.06378 -16.916416 960
-316.05984 -16.916416 960
-313.05591 -16.916416 960
-310.05194 -16.916416 960
-307.048 -16.916416 960
-304.04407 -16.916416 960
-301.04013 -16.916416 960
-298.34662 -16.934036 961
-295.03223 -16.916416 960
-292.02829 -16.916416 960
-288.72327 -16.898794 959
-285.72247 -16.898794 959
-282.72165 -16.898794 959
-279.72083 -16.898794 959
-276.43149 -16.881172 958
-273.43381 -16.881172 958
-270.4361 -16.881172 958
-267.43842 -16.881172 958
-264.44073 -16.881172 958
-261.44305 -16.881172 958
-258.44537 -16.881172 958
-255.44769 -16.881172 958
-252.45 -16.881172 958
-249.45232 -16.881172 958
-246.45464 -16.881172 958
-243.45695 -16.881172 958
-240.45926 -16.881172 958
-237.46158 -16.881172 958
-234.4639 -16.881172 958
-231.46622 -16.881172 958
-228.46852 -16.881172 958
-225.47084 -16.881172 958
-222.47316 -16.881172 958
-219.24637 -16.863552 957
-216.25182 -16.863552 957
-213.03442 -16.84593 956
-210.043 -16.84593 956
-207.05157 -16.84593 956
-204.06013 -16.84593 956
-201.06871 -16.84593 956
-198.07729 -16.84593 956
-195.28992 -16.863552 957
-192.29536 -16.863552 957
-189.30081 -16.863552 957
-186.11157 -16.84593 956
-183.31169 -16.863552 957
-180.12872 -16.84593 956
-177.1373 -16.84593 956
-174.14587 -16.84593 956
-171.15445 -16.84593 956
-167.98712 -16.82831 955
-164.99883 -16.82831 955
-162.01053 -16.82831 955
-159.02222 -16.82831 955
-156.03392 -16.82831 955
-153.04562 -16.82831 955
-150.05733 -16.82831 955
-146.91504 -16.810688 954
-143.92987 -16.810688 954
-140.79697 -16.793066 953
-137.81493 -16.793066 953
-134.83289 -16.793066 953
-131.71249 -16.775446 952
-128.73358 -16.775446 952
-125.75467 -16.775446 952
8.3137045 -16.810688 954
11.275185 -16.775446 952
14.239122 -16.757824 951
17.214903 -16.757824 951
20.190683 -16.757824 951
23.166466 -16.757824 951
26.142244 -16.757824 951
29.118025 -16.757824 951
32.093807 -16.757824 951
35.069588 -16.757824 951
38.005363 -16.740204 950
40.978016 -16.740204 950
43.950668 -16.740204 950
46.923321 -16.740204 950
49.895973 -16.740204 950
52.868622 -16.740204 950
55.841274 -16.740204 950
58.752018 -16.722582 949
61.721539 -16.722582 949
64.691063 -16.722582 949
67.660583 -16.722582 949
70.630104 -16.722582 949
73.599632 -16.722582 949
76.569153 -16.722582 949
79.538673 -16.722582 949
82.508202 -16.722582 949
85.567795 -16.740204 950
88.447243 -16.722582 949
91.416763 -16.722582 949
94.386292 -16.722582 949
97.25322 -16.70496 948
100.21962 -16.70496 948
103.18601 -16.70496 948
106.1524 -16.70496 948
109.00369 -16.687338 947
111.96696 -16.687338 947
115.05158 -16.70496 948
118.01797 -16.70496 948
120.98437 -16.70496 948
123.82001 -16.687338 947
126.78328 -16.687338 947
129.74654 -16.687338 947
132.56967 -16.669718 946
135.5298 -16.669718 946
138.48994 -16.669718 946
141.30055 -16.652098 945
144.25755 -16.652098 945
147.21457 -16.652098 945
150.17157 -16.652098 945
153.12857 -16.652098 945
156.25075 -16.669718 946
159.21089 -16.669718 946
161.99959 -16.652098 945
164.9566 -16.652098 945
167.9136 -16.652098 945
170.87061 -16.652098 945
173.82762 -16.652098 945
176.78462 -16.652098 945
179.74164 -16.652098 945
182.50531 -16.634476 944
185.45918 -16.634476 944
188.41306 -16.634476 944
191.36694 -16.634476 944
194.32082 -16.634476 944
197.27469 -16.634476 944
200.22856 -16.634476 944
203.39767 -16.652098 945
206.35469 -16.652098 945
209.09021 -16.634476 944
212.04408 -16.634476 944
214.99797 -16.634476 944
217.95184 -16.634476 944
220.90572 -16.634476 944
223.8596 -16.634476 944
226.81348 -16.634476 944
229.76735 -16.634476 944
232.72122 -16.634476 944
235.42543 -16.616854 943
238.37619 -16.616854 943
241.32693 -16.616854 943
244.27768 -16.616854 943
246.96626 -16.599232 942
249.91388 -16.599232 942
252.86151 -16.599232 942
255.80913 -16.599232 942
258.75674 -16.599232 942
261.70438 -16.599232 942
264.65198 -16.599232 942
267.31552 -16.581612 941
270.26001 -16.581612 941
273.2045 -16.581612 941
276.14899 -16.581612 941
279.09348 -16.581612 941
282.03796 -16.581612 941
284.98245 -16.581612 941
287.92694 -16.581612 941
290.87143 -16.581612 941
293.81592 -16.581612 941
296.76041 -16.581612 941
299.38641 -16.56399 940
302.32779 -16.56399 940
305.26913 -16.56399 940
308.21051 -16.56399 940
311.15186 -16.56399 940
314.09323 -16.56399 940
317.03458 -16.56399 940
319.63553 -16.54637 939
322.9173 -16.56399 940
325.85867 -16.56399 940
328.45023 -16.54637 939
331.38846 -16.54637 939
334.32669 -16.54637 939
337.26492 -16.54637 939
340.20316 -16.54637 939
342.77597 -16.528748 938
345.71106 -16.528748 938
348.64615 -16.528748 938
351.58127 -16.528748 938
354.51636 -16.528748 938
357.45148 -16.528748 938
360.38657 -16.528748 938
363.32169 -16.528748 938
366.25677 -16.528748 938
369.19189 -16.528748 938
371.73026 -16.511126 937
374.66223 -16.511126 937
377.59418 -16.511126 937
380.12006 -16.493505 936
383.04892 -16.493505 936
385.97775 -16.493505 936
388.49109 -16.475883 935
391.41681 -16.475883 935
394.34253 -16.475883 935
397.69315 -16.493505 936
400.62198 -16.493505 936
403.11966 -16.475883 935
406.47968 -16.493505 936
409.40851 -16.493505 936
412.33734 -16.493505 936
415.2662 -16.493505 936
418.64182 -16.511126 937
421.57379 -16.511126 937
424.50577 -16.511126 937
427.43774 -16.511126 937
429.91043 -16.493505 936
432.83926 -16.493505 936
435.7681 -16.493505 936
438.22827 -16.475883 935
441.15399 -16.475883 935
444.07971 -16.475883 935
447.0054 -16.475883 935
449.93112 -16.475883 935
452.85684 -16.475883 935
455.78256 -16.475883 935
458.70828 -16.475883 935
461.634 -16.475883 935
464.55969 -16.475883 935
467.48541 -16.475883 935
470.41113 -16.475883 935
473.33685 -16.475883 935
476.26257 -16.475883 935
478.67575 -16.458263 934
481.59833 -16.458263 934
484.00217 -16.440641 933
486.92163 -16.440641 933
489.84109 -16.440641 933
492.76053 -16.440641 933
495.67999 -16.440641 933
498.59946 -16.440641 933
501.51892 -16.440641 933
504.979 -16.458263 934
507.90161 -16.458263 934
510.82419 -16.458263 934
513.19672 -16.440641 933
516.11621 -16.440641 933
519.59192 -16.458263 934
522.51453 -16.458263 934
525.43713 -16.458263 934
528.35968 -16.458263 934
531.28229 -16.458263 934
534.2049 -16.458263 934
537.12744 -16.458263 934
539.47186 -16.440641 933
542.3913 -16.440641 933
545.31079 -16.440641 933
547.64264 -16.423019 932
550.55896 -16.423019 932
553.47528 -16.423019 932
556.3916 -16.423019 932
558.70782 -16.405397 931
561.62103 -16.405397 931
565.14062 -16.423019 932
568.05695 -16.423019 932
570.97327 -16.423019 932
573.2738 -16.405397 931
576.80591 -16.423019 932
579.72223 -16.423019 932
582.01343 -16.405397 931
584.92664 -16.405397 931
587.83984 -16.405397 931
590.75305 -16.405397 931
593.6662 -16.405397 931
596.57941 -16.405397 931
599.49261 -16.405397 931
602.40582 -16.405397 931
604.66882 -16.387777 930
607.57886 -16.387777 930
610.48895 -16.387777 930
614.05859 -16.405397 931
616.9718 -16.405397 931
619.88501 -16.405397 931
622.79822 -16.405397 931
625.71143 -16.405397 931
629.2998 -16.423019 932
632.21613 -16.423019 932
635.13245 -16.423019 932
638.04877 -16.423019 932
640.96515 -16.423019 932
644.57233 -16.440641 933
646.79779 -16.423019 932
649.71411 -16.423019 932
653.33069 -16.440641 933
655.54675 -16.423019 932
658.46307 -16.423019 932
660.6698 -16.405397 931
662.87018 -16.387777 930
665.06439 -16.370157 929
667.97131 -16.370157 929
670.87823 -16.370157 929
673.78522 -16.370157 929
676.69214 -16.370157 929
679.59906 -16.370157 929
682.50604 -16.370157 929
685.41296 -16.370157 929
688.31989 -16.370157 929
691.22687 -16.370157 929
694.88098 -16.387777 930
697.79102 -16.387777 930
700.70111 -16.387777 930
703.61115 -16.387777 930
706.52124 -16.387777 930
709.43127 -16.387777 930
713.10736 -16.405397 931
716.02057 -16.405397 931
718.93378 -16.405397 931
721.84698 -16.405397 931
724.76019 -16.405397 931
726.89172 -16.387777 930
729.80182 -16.387777 930
732.71185 -16.387777 930
735.62195 -16.387777 930
737.73792 -16.370157 929
740.64484 -16.370157 929
743.55176 -16.370157 929
746.45874 -16.370157 929
748.55902 -16.352535 928
751.46283 -16.352535 928
754.36664 -16.352535 928
757.27045 -16.352535 928
760.17426 -16.352535 928
763.90033 -16.370157 929
766.80731 -16.370157 929
771.37134 -16.405397 931
775.11621 -16.423019 932
1341.5732 -27.295341 1549
1357.3737 -27.41869 1556
1361.3671 -27.40107 1555
1365.3542 -27.383448 1554
1366.6899 -27.312963 1550
1368.0006 -27.242477 1546
1369.2863 -27.171991 1542
1369.6558 -27.083885 1537
1369.9939 -26.995779 1532
1370.3008 -26.907673 1527
1370.5764 -26.819567 1522
1369.917 -26.71384 1516
1369.2201 -26.60811 1510
1369.3956 -26.520004 1505
1368.6267 -26.414278 1499
1368.7365 -26.326172 1494
1368.8149 -26.238066 1489
1369.7845 -26.16758 1485
1369.8036 -26.079473 1480
1369.7913 -25.991367 1475
1368.8159 -25.885641 1469
1367.803 -25.779911 1463
1367.6906 -25.691805 1458
1368.488 -25.621323 1454
1368.3162 -25.533216 1449
1368.113 -25.445108 1444
1368.8292 -25.374624 1440
1368.5665 -25.286516 1435
1368.2727 -25.19841 1430
1367.9474 -25.110304 1425
1368.5541 -25.039818 1421
1368.1694 -24.951712 1416
1368.7229 -24.881229 1412
1369.2512 -24.810743 1408
1369.7546 -24.740257 1404
1369.2542 -24.652151 1399
1368.7224 -24.564045 1394
1368.1594 -24.475939 1389
1368.5532 -24.405455 1385
1367.9308 -24.317348 1380
1368.2714 -24.246862 1376
1368.587 -24.176376 1372
-671.87616 -14.386507 945
-671.75055 -14.447402 949
-670.8952 -14.493074 952
-669.31946 -14.523521 954
-667.7312 -14.553969 956
-665.43512 -14.569194 957
-663.13281 -14.584416 958
-661.51324 -14.614864 960
-659.19525 -14.630089 961
-656.18817 -14.630089 961
-653.86078 -14.645312 962
-650.85059 -14.645312 962
-647.84039 -14.645312 962
-645.50049 -14.660535 963
-642.48718 -14.660535 963
-638.80981 -14.645312 962
-635.79962 -14.645312 962
-633.4472 -14.660535 963
-631.0885 -14.675759 964
-628.07202 -14.675759 964
-625.05554 -14.675759 964
-622.03912 -14.675759 964
-618.38055 -14.660535 963
-615.36719 -14.660535 963
-612.35388 -14.660535 963
-608.70776 -14.645312 962
-605.69757 -14.645312 962
-602.68738 -14.645312 962
-599.67719 -14.645312 962
-596.66699 -14.645312 962
-593.6568 -14.645312 962
-590.64661 -14.645312 962
-587.63641 -14.645312 962
-584.62616 -14.645312 962
-582.22058 -14.660535 963
-579.20728 -14.660535 963
-576.19391 -14.660535 963
-572.58539 -14.645312 962
-569.5752 -14.645312 962
-565.97601 -14.630089 961
-562.96893 -14.630089 961
-559.96185 -14.630089 961
-557.53436 -14.645312 962
-554.52417 -14.645312 962
-551.51398 -14.645312 962
-548.50378 -14.645312 962
-545.49359 -14.645312 962
-542.4834 -14.645312 962
-539.47314 -14.645312 962
-535.90527 -14.630089 961
-532.89825 -14.630089 961
-529.89117 -14.630089 961
-526.88409 -14.630089 961
-523.87701 -14.630089 961
-521.41199 -14.645312 962
-518.40173 -14.645312 962
-515.39154 -14.645312 962
-512.38135 -14.645312 962
-509.37115 -14.645312 962
-506.88733 -14.660535 963
-503.87399 -14.660535 963
-500.34055 -14.645312 962
-497.33035 -14.645312 962
-494.32016 -14.645312 962
-491.30997 -14.645312 962
-488.29974 -14.645312 962
-484.7851 -14.630089 961
-481.77802 -14.630089 961
-478.77094 -14.630089 961
-475.76385 -14.630089 961
-472.75681 -14.630089 961
-469.74973 -14.630089 961
-466.74265 -14.630089 961
-463.73557 -14.630089 961
-460.72852 -14.630089 961
-457.24512 -14.614864 960
-454.24118 -14.614864 960
-451.23724 -14.614864 960
-447.76642 -14.59964 959
-444.76559 -14.59964 959
-442.2254 -14.614864 960
-439.22147 -14.614864 960
-436.21753 -14.614864 960
-433.21359 -14.614864 960
-430.20963 -14.614864 960
-427.20569 -14.614864 960
-424.20175 -14.614864 960
-421.19781 -14.614864 960
-418.19388 -14.614864 960
-415.18991 -14.614864 960
-412.18597 -14.614864 960
-409.18207 -14.614864 960
-406.17813 -14.614864 960
-403.17416 -14.614864 960
-400.17023 -14.614864 960
-397.16629 -14.614864 960
-394.16235 -14.614864 960
-390.75095 -14.59964 959
-387.75012 -14.59964 959
-384.7493 -14.59964 959
-381.7485 -14.59964 959
-378.74768 -14.59964 959
-375.74686 -14.59964 959
-372.74606 -14.59964 959
-369.35971 -14.584416 958
-366.36203 -14.584416 958
-363.36432 -14.584416 958
-360.36664 -14.584416 958
-357.36896 -14.584416 958
-354.00137 -14.569194 957
-351.3736 -14.584416 958
-348.37592 -14.584416 958
-345.0177 -14.569194 957
-342.02313 -14.569194 957
-339.02859 -14.569194 957
-336.03403 -14.569194 957
-333.03946 -14.569194 957
-330.04492 -14.569194 957
-327.05035 -14.569194 957
-324.39444 -14.584416 958
-321.39676 -14.584416 958
-318.06668 -14.569194 957
-315.07214 -14.569194 957
-312.07758 -14.569194 957
-309.40601 -14.584416 958
-306.40833 -14.584416 958
-303.41064 -14.584416 958
-300.09937 -14.569194 957
-297.41528 -14.584416 958
-294.4176 -14.584416 958
-291.11569 -14.569194 957
-287.8201 -14.553969 956
-284.5307 -14.538745 955
-281.54242 -14.538745 955
-278.55411 -14.538745 955
-275.56583 -14.538745 955
-272.57751 -14.538745 955
-269.58923 -14.538745 955
-266.60092 -14.538745 955
-263.61264 -14.538745 955
-260.89725 -14.553969 956
-257.90582 -14.553969 956
-254.9144 -14.553969 956
-251.92297 -14.553969 956
-248.67114 -14.538745 955
-245.68285 -14.538745 955
-242.69455 -14.538745 955
-239.70625 -14.538745 955
-236.71796 -14.538745 955
-233.72966 -14.538745 955
-230.74136 -14.538745 955
-227.75307 -14.538745 955
-224.76477 -14.538745 955
-221.77647 -14.538745 955
-218.55908 -14.523521 954
-215.57391 -14.523521 954
-212.58875 -14.523521 954
-209.38387 -14.508297 953
-206.40182 -14.508297 953
-203.41978 -14.508297 953
-200.43774 -14.508297 953
-197.4557 -14.508297 953
-194.47366 -14.508297 953
-191.69257 -14.523521 954
-188.7074 -14.523521 954
-185.72223 -14.523521 954
-182.5455 -14.508297 953
-179.75189 -14.523521 954
-176.76672 -14.523521 954
-173.5994 -14.508297 953
-170.43832 -14.493074 952
-167.45941 -14.493074 952
-164.4805 -14.493074 952
-161.50159 -14.493074 952
-158.52267 -14.493074 952
-155.54376 -14.493074 952
-152.56487 -14.493074 952
-149.58595 -14.493074 952
-146.45305 -14.47785 951
-143.47726 -14.47785 951
-140.50148 -14.47785 951
-137.38109 -14.462626 950
-134.40843 -14.462626 950
-131.43579 -14.462626 950
-128.32791 -14.447402 949
-125.49048 -14.462626 950
5.3229508 -14.508297 953
8.2875605 -14.47785 951
11.239655 -14.447402 949
14.209176 -14.447402 949
17.160597 -14.432178 948
20.126991 -14.432178 948
23.093386 -14.432178 948
26.059778 -14.432178 948
28.995552 -14.416954 947
31.992565 -14.432178 948
34.958958 -14.432178 948
37.885345 -14.416954 947
40.84861 -14.416954 947
43.811874 -14.416954 947
46.775139 -14.416954 947
49.738403 -14.416954 947
52.646015 -14.401731 946
55.606152 -14.401731 946
58.566288 -14.401731 946
61.526424 -14.401731 946
64.554726 -14.416954 947
67.51799 -14.416954 947
70.481255 -14.416954 947
73.444519 -14.416954 947
76.407784 -14.416954 947
79.371048 -14.416954 947
82.334312 -14.416954 947
85.297577 -14.416954 947
88.260841 -14.416954 947
91.127777 -14.401731 946
94.087914 -14.401731 946
96.945457 -14.386507 945
99.902466 -14.386507 945
102.85947 -14.386507 945
105.81647 -14.386507 945
108.65838 -14.371284 944
111.61225 -14.371284 944
114.56613 -14.371284 944
117.6445 -14.386507 945
120.60151 -14.386507 945
123.42776 -14.371284 944
126.38164 -14.371284 944
129.33551 -14.371284 944
132.2894 -14.371284 944
135.10001 -14.356059 943
138.05075 -14.356059 943
140.85197 -14.340836 942
143.79959 -14.340836 942
146.74721 -14.340836 942
149.69484 -14.340836 942
152.64246 -14.340836 942
155.75523 -14.356059 943
158.70599 -14.356059 943
161.65674 -14.356059 943
164.60748 -14.356059 943
167.55823 -14.356059 943
170.50899 -14.356059 943
173.45973 -14.356059 943
176.2234 -14.340836 942
179.17102 -14.340836 942
181.92531 -14.325612 941
184.8698 -14.325612 941
188.01389 -14.340836 942
190.75877 -14.325612 941
193.70326 -14.325612 941
196.64775 -14.325612 941
199.59224 -14.325612 941
202.53674 -14.325612 941
205.6996 -14.340836 942
208.42572 -14.325612 941
211.37021 -14.325612 941
214.3147 -14.325612 941
217.25919 -14.325612 941
220.20367 -14.325612 941
223.14816 -14.325612 941
226.09265 -14.325612 941
229.03714 -14.325612 941
231.98163 -14.325612 941
234.67648 -14.310389 940
237.61784 -14.310389 940
240.5592 -14.310389 940
243.50056 -14.310389 940
246.17973 -14.295164 939
249.11797 -14.295164 939
252.32465 -14.310389 940
255.26601 -14.310389 940
258.20737 -14.310389 940
260.87088 -14.295164 939
263.80911 -14.295164 939
266.74734 -14.295164 939
269.39841 -14.279941 938
272.3335 -14.279941 938
275.26862 -14.279941 938
278.2037 -14.279941 938
281.13879 -14.279941 938
283.77106 -14.264716 937
286.70303 -14.264716 937
289.63498 -14.264716 937
292.56696 -14.264716 937
295.81433 -14.279941 938
298.74942 -14.279941 938
301.36288 -14.264716 937
304.29486 -14.264716 937
307.22684 -14.264716 937
310.15881 -14.264716 937
313.09079 -14.264716 937
316.02277 -14.264716 937
318.95471 -14.264716 937
321.88669 -14.264716 937
324.81866 -14.264716 937
327.75064 -14.264716 937
330.32971 -14.249492 936
333.25854 -14.249492 936
336.18741 -14.249492 936
339.11624 -14.249492 936
342.0451 -14.249492 936
344.60535 -14.234269 935
347.53107 -14.234269 935
350.45679 -14.234269 935
353.38251 -14.234269 935
356.30823 -14.234269 935
359.23395 -14.234269 935
362.15964 -14.234269 935
365.08536 -14.234269 935
368.40469 -14.249492 936
370.9368 -14.234269 935
373.86252 -14.234269 935
376.38525 -14.219046 934
378.90173 -14.203821 933
381.82117 -14.203821 933
384.74063 -14.203821 933
387.6601 -14.203821 933
390.57956 -14.203821 933
393.49899 -14.203821 933
396.41846 -14.203821 933
399.33792 -14.203821 933
402.25739 -14.203821 933
405.17682 -14.203821 933
