ply
format ascii 1.0
comment PCL generated
element vertex 1956
property float x
property float y
property float z
element camera 0
property float view_px
property float view_py
property float view_pz
property float x_axisx
property float x_axisy
property float x_axisz
property float y_axisx
property float y_axisy
property float y_axisz
property float z_axisx
property float z_axisy
property float z_axisz
property float focal
property float scalex
property float scaley
property float centerx
property float centery
property int viewportx
property int viewporty
property float k1
property float k2
end_header
141.94014 144.25511 785
144.58043 144.43887 786
146.85283 144.25511 785
149.30919 144.25511 785
151.76553 144.25511 785
154.02542 144.07133 784
156.47864 144.07133 784
158.93185 144.07133 784
161.17923 143.88757 783
163.62932 143.88757 783
166.07941 143.88757 783
168.5295 143.88757 783
170.9796 143.88757 783
173.65118 144.07133 784
176.1044 144.07133 784
178.55762 144.07133 784
181.01083 144.07133 784
183.46407 144.07133 784
185.91728 144.07133 784
188.3705 144.07133 784
190.58032 143.88757 783
193.03041 143.88757 783
195.4805 143.88757 783
197.67781 143.70381 782
200.12477 143.70381 782
202.57173 143.70381 782
205.01869 143.70381 782
207.46567 143.70381 782
209.91263 143.70381 782
212.35959 143.70381 782
214.80655 143.70381 782
217.25351 143.70381 782
219.41951 143.52005 781
221.86334 143.52005 781
224.30717 143.52005 781
226.75101 143.52005 781
229.19484 143.52005 781
231.63867 143.52005 781
234.0825 143.52005 781
236.52635 143.52005 781
238.97018 143.52005 781
241.41402 143.52005 781
243.85785 143.52005 781
246.30168 143.52005 781
248.74551 143.52005 781
251.18935 143.52005 781
253.63318 143.52005 781
256.077 143.52005 781
258.52084 143.52005 781
260.96466 143.52005 781
263.07126 143.33629 780
265.51196 143.33629 780
267.95264 143.33629 780
270.73999 143.52005 781
273.18384 143.52005 781
275.62766 143.52005 781
278.0715 143.52005 781
280.51532 143.52005 781
283.32147 143.70381 782
286.4993 144.07133 784
289.32108 144.25511 785
291.77744 144.25511 785
294.23376 144.25511 785
296.69012 144.25511 785
299.14648 144.25511 785
301.98703 144.43887 786
304.05917 144.25511 785
306.90601 144.43887 786
309.36548 144.43887 786
311.82495 144.43887 786
314.28442 144.43887 786
317.14688 144.62263 787
319.6095 144.62263 787
322.07211 144.62263 787
324.12234 144.43887 786
326.58182 144.43887 786
329.04129 144.43887 786
331.07901 144.25511 785
333.53537 144.25511 785
335.9917 144.25511 785
338.01694 144.07133 784
340.47015 144.07133 784
343.36075 144.25511 785
345.37659 144.07133 784
347.8298 144.07133 784
350.28302 144.07133 784
352.73624 144.07133 784
355.64252 144.25511 785
358.09885 144.25511 785
360.55521 144.25511 785
363.01154 144.25511 785
365.4679 144.25511 785
367.92426 144.25511 785
369.90878 144.07133 784
372.362 144.07133 784
374.81522 144.07133 784
377.26843 144.07133 784
379.2373 143.88757 783
381.68741 143.88757 783
384.13751 143.88757 783
386.58759 143.88757 783
389.03769 143.88757 783
391.98776 144.07133 784
393.93787 143.88757 783
396.38794 143.88757 783
398.83804 143.88757 783
401.28815 143.88757 783
403.73822 143.88757 783
406.18832 143.88757 783
408.6384 143.88757 783
411.0885 143.88757 783
413.01047 143.70381 782
415.45743 143.70381 782
417.37 143.52005 781
419.81381 143.52005 781
422.25766 143.52005 781
424.70148 143.52005 781
427.14532 143.52005 781
429.58914 143.52005 781
432.03299 143.52005 781
434.47681 143.52005 781
436.92065 143.52005 781
439.36447 143.52005 781
441.80832 143.52005 781
444.82095 143.70381 782
446.69598 143.52005 781
449.1398 143.52005 781
451.58365 143.52005 781
454.02747 143.52005 781
457.05576 143.70381 782
459.50272 143.70381 782
461.94968 143.70381 782
464.39664 143.70381 782
466.8436 143.70381 782
469.29056 143.70381 782
471.73755 143.70381 782
474.18451 143.70381 782
476.63147 143.70381 782
479.07843 143.70381 782
480.90964 143.52005 781
483.35345 143.52005 781
485.7973 143.52005 781
488.24112 143.52005 781
490.68497 143.52005 781
492.49734 143.33629 780
494.93805 143.33629 780
496.74112 143.15251 779
499.17868 143.15251 779
501.61624 143.15251 779
504.70087 143.33629 780
507.14157 143.33629 780
509.58228 143.33629 780
512.02295 143.33629 780
514.46368 143.33629 780
516.90436 143.33629 780
519.34509 143.33629 780
521.78577 143.33629 780
523.55444 143.15251 779
526.66718 143.33629 780
529.10791 143.33629 780
531.54858 143.33629 780
533.98932 143.33629 780
535.74231 143.15251 779
538.17987 143.15251 779
539.92346 142.96875 778
542.35791 142.96875 778
544.79236 142.96875 778
547.22681 142.96875 778
549.66125 142.96875 778
552.0957 142.96875 778
554.53015 142.96875 778
556.24872 142.78499 777
558.67999 142.78499 777
561.11133 142.78499 777
563.54266 142.78499 777
565.97394 142.78499 777
568.40527 142.78499 777
570.83661 142.78499 777
573.26794 142.78499 777
575.69922 142.78499 777
578.87457 142.96875 778
581.30902 142.96875 778
582.99316 142.78499 777
585.4245 142.78499 777
587.85583 142.78499 777
590.28711 142.78499 777
592.71844 142.78499 777
595.14978 142.78499 777
597.58105 142.78499 777
599.24011 142.60123 776
601.66833 142.60123 776
604.0965 142.60123 776
606.52472 142.60123 776
608.95288 142.60123 776
611.3811 142.60123 776
613.80927 142.60123 776
616.23743 142.60123 776
619.46295 142.78499 777
621.09381 142.60123 776
623.52203 142.60123 776
625.9502 142.60123 776
628.37836 142.60123 776
630.80658 142.60123 776
633.23474 142.60123 776
635.66296 142.60123 776
638.09113 142.60123 776
640.51935 142.60123 776
642.94751 142.60123 776
644.54407 142.41747 775
646.96912 142.41747 775
649.39417 142.41747 775
651.81921 142.41747 775
655.08844 142.60123 776
656.66931 142.41747 775
659.09436 142.41747 775
662.37299 142.60123 776
664.80121 142.60123 776
667.22937 142.60123 776
669.65759 142.60123 776
672.08575 142.60123 776
674.51392 142.60123 776
676.94214 142.60123 776
679.3703 142.60123 776
680.91992 142.41747 775
683.34497 142.41747 775
685.77002 142.41747 775
687.30713 142.23369 774
689.729 142.23369 774
692.15094 142.23369 774
694.57288 142.23369 774
696.99481 142.23369 774
699.41675 142.23369 774
701.83868 142.23369 774
704.26062 142.23369 774
706.68256 142.23369 774
709.10443 142.23369 774
711.52637 142.23369 774
714.87073 142.41747 775
716.37024 142.23369 774
718.79218 142.23369 774
721.21411 142.23369 774
723.63605 142.23369 774
726.05798 142.23369 774
728.47992 142.23369 774
730.90179 142.23369 774
733.32373 142.23369 774
735.74567 142.23369 774
738.1676 142.23369 774
739.63269 142.04993 773
742.05151 142.04993 773
744.47034 142.04993 773
746.8891 142.04993 773
749.30792 142.04993 773
751.72668 142.04993 773
754.14551 142.04993 773
756.56433 142.04993 773
758.98309 142.04993 773
760.41687 141.86617 772
762.83252 141.86617 772
766.2395 142.04993 773
768.65833 142.04993 773
771.07709 142.04993 773
-694.71045 148.55721 798
-693.94836 148.92953 800
-692.30939 149.11569 801
-690.66412 149.30186 802
-689.87067 149.67418 804
-687.35486 149.67418 804
-685.69086 149.86035 805
-684.02057 150.04651 806
-681.49847 150.04651 806
-678.97644 150.04651 806
-676.45441 150.04651 806
-674.76849 150.23267 807
-672.24329 150.23267 807
-669.71808 150.23267 807
-666.36615 150.04651 806
-664.66772 150.23267 807
-662.14252 150.23267 807
-659.61731 150.23267 807
-657.09216 150.23267 807
-654.56696 150.23267 807
-652.04175 150.23267 807
-649.5166 150.23267 807
-646.99139 150.23267 807
-644.46619 150.23267 807
-641.94104 150.23267 807
-639.41583 150.23267 807
-636.89062 150.23267 807
-634.36542 150.23267 807
-631.84027 150.23267 807
-629.31506 150.23267 807
-626.78986 150.23267 807
-624.26471 150.23267 807
-621.7395 150.23267 807
-619.21429 150.23267 807
-616.68915 150.23267 807
-614.16394 150.23267 807
-611.63873 150.23267 807
-609.11353 150.23267 807
-606.58838 150.23267 807
-604.06317 150.23267 807
-601.53796 150.23267 807
-599.01282 150.23267 807
-596.48761 150.23267 807
-593.9624 150.23267 807
-592.1701 150.41882 808
-589.64178 150.41882 808
-587.11346 150.41882 808
-583.86163 150.23267 807
-581.33649 150.23267 807
-579.5285 150.41882 808
-577.00018 150.41882 808
-574.47186 150.41882 808
-572.65143 150.60498 809
-570.12 150.60498 809
-567.58856 150.60498 809
-565.75549 150.79115 810
-562.52563 150.60498 809
-559.9942 150.60498 809
-557.46277 150.60498 809
-554.93127 150.60498 809
-552.39984 150.60498 809
-550.54803 150.79115 810
-548.01349 150.79115 810
-545.47888 150.79115 810
-542.94434 150.79115 810
-540.40973 150.79115 810
-537.87518 150.79115 810
-535.34058 150.79115 810
-532.80603 150.79115 810
-530.27142 150.79115 810
-527.73688 150.79115 810
-525.20227 150.79115 810
-522.66772 150.79115 810
-520.13312 150.79115 810
-518.23761 150.97731 811
-515.69989 150.97731 811
-513.79492 151.16348 812
-511.25409 151.16348 812
-508.71326 151.16348 812
-506.17242 151.16348 812
-503.01135 150.97731 811
-499.85654 150.79115 810
-496.09402 150.41882 808
-491.73315 149.86035 805
-448.776 141.85538 762
-444.63419 141.29689 759
-441.09381 140.92458 757
-438.14551 140.7384 756
-435.20349 140.55225 755
-432.2677 140.36607 754
-429.90836 140.36607 754
-427.54901 140.36607 754
-424.62573 140.17992 753
-422.83032 140.36607 754
-420.47098 140.36607 754
-418.66617 140.55225 755
-416.30368 140.55225 755
-413.94122 140.55225 755
-411.57874 140.55225 755
-409.21625 140.55225 755
-406.85376 140.55225 755
-404.4913 140.55225 755
-402.12881 140.55225 755
-399.76633 140.55225 755
-397.40387 140.55225 755
-395.04138 140.55225 755
-393.19904 140.7384 756
-391.35037 140.92458 757
-390.00934 141.29689 759
-388.14508 141.48306 760
-386.27454 141.66922 761
-384.90219 142.04153 763
-383.51733 142.41386 765
-382.61819 142.97235 768
-381.70026 143.53084 771
-381.25549 144.27548 775
-380.90018 149.86035 805
-380.26138 150.60498 809
-378.66376 150.97731 811
-376.58984 151.16348 812
-374.04901 151.16348 812
-371.50818 151.16348 812
-368.96735 151.16348 812
-365.97522 150.97731 811
-363.43753 150.97731 811
-360.89981 150.97731 811
-357.92026 150.79115 810
-355.38568 150.79115 810
-352.8511 150.79115 810
-350.31653 150.79115 810
-347.35257 150.60498 809
-344.82114 150.60498 809
-342.28967 150.60498 809
-339.33826 150.41882 808
-337.22678 150.60498 809
-334.69534 150.60498 809
-332.16388 150.60498 809
-329.22501 150.41882 808
-326.69669 150.41882 808
-324.16837 150.41882 808
-321.64005 150.41882 808
-318.71677 150.23267 807
-316.19159 150.23267 807
-313.66638 150.23267 807
-310.75565 150.04651 806
-308.23361 150.04651 806
-305.71155 150.04651 806
-303.18948 150.04651 806
-300.66742 150.04651 806
-298.14536 150.04651 806
-295.62329 150.04651 806
-293.10123 150.04651 806
-290.57916 150.04651 806
-288.05713 150.04651 806
-285.53506 150.04651 806
-283.013 150.04651 806
-280.14291 149.86035 805
-277.62399 149.86035 805
-275.10504 149.86035 805
-272.24753 149.67418 804
-269.73172 149.67418 804
-267.21591 149.67418 804
-264.7001 149.67418 804
-262.51041 149.86035 805
-259.99146 149.86035 805
-257.47253 149.86035 805
-254.95361 149.86035 805
-252.43468 149.86035 805
-249.91574 149.86035 805
-247.39682 149.86035 805
-244.87788 149.86035 805
-242.05789 149.67418 804
-238.94621 149.30186 802
-236.14186 149.11569 801
-232.76042 148.55721 798
-229.68629 148.18489 796
-226.62468 147.81256 794
-223.85786 147.6264 793
-221.09731 147.44025 792
-218.61905 147.44025 792
-216.14079 147.44025 792
-213.93233 147.6264 793
-211.1843 147.44025 792
-208.44254 147.25407 791
-206.22778 147.44025 792
-203.74954 147.44025 792
-201.2713 147.44025 792
-198.79305 147.44025 792
-196.56265 147.6264 793
-194.08128 147.6264 793
-191.5999 147.6264 793
-189.11852 147.6264 793
-186.63713 147.6264 793
-184.15575 147.6264 793
-181.67436 147.6264 793
-178.96703 147.44025 792
-176.48877 147.44025 792
-173.7908 147.25407 791
-171.31567 147.25407 791
-168.84056 147.25407 791
-166.36543 147.25407 791
-163.8903 147.25407 791
-161.41519 147.25407 791
-158.94006 147.25407 791
-156.66275 147.44025 792
-154.18449 147.44025 792
-151.51469 147.25407 791
-149.03957 147.25407 791
-146.56444 147.25407 791
-144.08932 147.25407 791
-141.6142 147.25407 791
-139.13907 147.25407 791
-136.66394 147.25407 791
-134.18883 147.25407 791
-131.7137 147.25407 791
-129.23857 147.25407 791
-126.6032 147.06792 790
-124.1312 147.06792 790
-121.8132 147.25407 791
-119.33808 147.25407 791
-116.71522 147.06792 790
-114.24323 147.06792 790
-111.91271 147.25407 791
-109.43758 147.25407 791
-106.96246 147.25407 791
-104.48734 147.25407 791
-102.01221 147.25407 791
-99.537094 147.25407 791
-96.939262 147.06792 790
-94.46727 147.06792 790
-91.99527 147.06792 790
-89.409958 146.88174 789
-86.941093 146.88174 789
-84.472229 146.88174 789
-82.003357 146.88174 789
-79.534492 146.88174 789
-77.065628 146.88174 789
-74.596764 146.88174 789
-72.127899 146.88174 789
-69.659035 146.88174 789
-67.19017 146.88174 789
-64.721298 146.88174 789
-62.252438 146.88174 789
-59.783569 146.88174 789
-57.314705 146.88174 789
-54.84584 146.88174 789
-52.376976 146.88174 789
-49.908108 146.88174 789
-47.43924 146.88174 789
-44.91338 146.69559 788
-42.447643 146.69559 788
-39.981907 146.69559 788
-37.516171 146.69559 788
-35.005955 146.50943 787
-32.543346 146.50943 787
-30.080738 146.50943 787
-27.618132 146.50943 787
-25.155525 146.50943 787
-22.692917 146.50943 787
-20.23031 146.50943 787
-17.767702 146.50943 787
-15.324542 146.69559 788
-12.858806 146.69559 788
-10.393069 146.69559 788
-7.9273329 146.69559 788
-5.461597 146.69559 788
-2.9958606 146.69559 788
-0.53012431 146.69559 788
1.9356121 146.69559 788
4.3957629 146.50943 787
6.8583703 146.50943 787
9.3209772 146.50943 787
11.783585 146.50943 787
14.246192 146.50943 787
16.708799 146.50943 787
19.195766 146.69559 788
21.661503 146.69559 788
24.127239 146.69559 788
26.592976 146.69559 788
29.058712 146.69559 788
31.524448 146.69559 788
33.947052 146.50943 787
36.409657 146.50943 787
38.921658 146.69559 788
41.387394 146.69559 788
43.85313 146.69559 788
46.318867 146.69559 788
48.784603 146.69559 788
51.25034 146.69559 788
53.647911 146.50943 787
56.110519 146.50943 787
58.573128 146.50943 787
61.035732 146.50943 787
63.417656 146.32326 786
65.877136 146.32326 786
68.336609 146.32326 786
70.886162 146.50943 787
73.34877 146.50943 787
75.811378 146.50943 787
78.273987 146.50943 787
80.634003 146.32326 786
83.093483 146.32326 786
85.552963 146.32326 786
88.012436 146.32326 786
90.471916 146.32326 786
92.813164 146.1371 785
95.269508 146.1371 785
97.725861 146.1371 785
100.18221 146.1371 785
102.63855 146.1371 785
105.0949 146.1371 785
107.55125 146.1371 785
109.86746 145.95094 784
112.32068 145.95094 784
114.7739 145.95094 784
117.37665 146.1371 785
119.83299 146.1371 785
122.28934 146.1371 785
124.74569 146.1371 785
127.20204 146.1371 785
129.49323 145.95094 784
131.94644 145.95094 784
134.39966 145.95094 784
136.85287 145.95094 784
139.30611 145.95094 784
141.75932 145.95094 784
144.21254 145.95094 784
146.85283 146.1371 785
149.11897 145.95094 784
151.5722 145.95094 784
153.82896 145.76479 783
156.27905 145.76479 783
158.72914 145.76479 783
160.97339 145.57863 782
163.42035 145.57863 782
165.86731 145.57863 782
168.31427 145.57863 782
170.9796 145.76479 783
173.42969 145.76479 783
175.87978 145.76479 783
178.32986 145.76479 783
180.77995 145.76479 783
183.23004 145.76479 783
185.68015 145.76479 783
188.13023 145.76479 783
190.33693 145.57863 782
192.78389 145.57863 782
195.23085 145.57863 782
197.67781 145.57863 782
199.86885 145.39246 781
202.31268 145.39246 781
204.75652 145.39246 781
207.20035 145.39246 781
209.64418 145.39246 781
212.08801 145.39246 781
214.53185 145.39246 781
216.97568 145.39246 781
219.13858 145.2063 780
221.57928 145.2063 780
224.01999 145.2063 780
226.46069 145.2063 780
228.9014 145.2063 780
231.3421 145.2063 780
233.78281 145.2063 780
236.22351 145.2063 780
238.66422 145.2063 780
241.10492 145.2063 780
243.54561 145.2063 780
245.98631 145.2063 780
248.42702 145.2063 780
250.86772 145.2063 780
253.30843 145.2063 780
255.74913 145.2063 780
258.18985 145.2063 780
260.63055 145.2063 780
262.73395 145.02013 779
265.17154 145.02013 779
267.6091 145.02013 779
270.04669 145.02013 779
272.83405 145.2063 780
275.27475 145.2063 780
277.71545 145.2063 780
280.15616 145.2063 780
282.95917 145.39246 781
285.76843 145.57863 782
288.58395 145.76479 783
291.40576 145.95094 784
293.85898 145.95094 784
296.31219 145.95094 784
298.76541 145.95094 784
301.60281 146.1371 785
303.67184 145.95094 784
306.12506 145.95094 784
308.57828 145.95094 784
311.42822 146.1371 785
313.88458 146.1371 785
316.34091 146.1371 785
319.2034 146.32326 786
321.66287 146.32326 786
323.70996 146.1371 785
326.16632 146.1371 785
328.62265 146.1371 785
330.65726 145.95094 784
333.11047 145.95094 784
335.56372 145.95094 784
337.58578 145.76479 783
340.03586 145.76479 783
342.92337 145.95094 784
344.93604 145.76479 783
347.38614 145.76479 783
349.83621 145.76479 783
352.28632 145.76479 783
354.73642 145.76479 783
357.6427 145.95094 784
360.09592 145.95094 784
362.54913 145.95094 784
365.00235 145.95094 784
367.45557 145.95094 784
369.43695 145.76479 783
371.88705 145.76479 783
374.33713 145.76479 783
376.78723 145.76479 783
379.2373 145.76479 783
381.19995 145.57863 782
383.64691 145.57863 782
386.09387 145.57863 782
388.54083 145.57863 782
391.48776 145.76479 783
393.43475 145.57863 782
395.88171 145.57863 782
398.32867 145.57863 782
400.77563 145.57863 782
403.2226 145.57863 782
405.66956 145.57863 782
407.59464 145.39246 781
410.56348 145.57863 782
412.48233 145.39246 781
414.92615 145.39246 781
416.83554 145.2063 780
419.27625 145.2063 780
421.71695 145.2063 780
424.15765 145.2063 780
426.59836 145.2063 780
429.03906 145.2063 780
431.47977 145.2063 780
433.92047 145.2063 780
436.36118 145.2063 780
439.36447 145.39246 781
441.80832 145.39246 781
444.25214 145.39246 781
446.12399 145.2063 780
448.5647 145.2063 780
451.0054 145.2063 780
453.44611 145.2063 780
455.88681 145.2063 780
458.91513 145.39246 781
461.35898 145.39246 781
463.8028 145.39246 781
466.24664 145.39246 781
468.69046 145.39246 781
471.13431 145.39246 781
473.57812 145.39246 781
476.02197 145.39246 781
478.46579 145.39246 781
480.29382 145.2063 780
482.73453 145.2063 780
485.17523 145.2063 780
486.99081 145.02013 779
489.42838 145.02013 779
491.86597 145.02013 779
493.66901 144.83397 778
496.10345 144.83397 778
498.5379 144.83397 778
500.97235 144.83397 778
503.4068 144.83397 778
506.49139 145.02013 779
508.92899 145.02013 779
511.36655 145.02013 779
513.80414 145.02013 779
516.2417 145.02013 779
518.67926 145.02013 779
521.11682 145.02013 779
523.55444 145.02013 779
525.992 145.02013 779
528.42957 145.02013 779
530.86713 145.02013 779
533.30475 145.02013 779
535.05457 144.83397 778
537.48901 144.83397 778
539.92346 144.83397 778
541.66083 144.64781 777
544.0921 144.64781 777
546.52344 144.64781 777
548.95477 144.64781 777
551.38605 144.64781 777
553.81738 144.64781 777
555.53278 144.46164 776
557.96094 144.46164 776
560.38916 144.46164 776
562.81732 144.46164 776
565.24554 144.46164 776
567.67371 144.46164 776
570.10187 144.46164 776
572.53009 144.46164 776
574.95825 144.46164 776
578.13055 144.64781 777
580.56189 144.64781 777
582.99316 144.64781 777
584.67102 144.46164 776
587.09918 144.46164 776
589.5274 144.46164 776
591.95557 144.46164 776
593.6178 144.27548 775
596.81195 144.46164 776
599.24011 144.46164 776
600.89301 144.27548 775
603.31805 144.27548 775
605.7431 144.27548 775
608.16815 144.27548 775
610.5932 144.27548 775
613.01831 144.27548 775
616.23743 144.46164 776
618.66565 144.46164 776
620.29346 144.27548 775
622.71851 144.27548 775
625.14355 144.27548 775
627.5686 144.27548 775
629.99371 144.27548 775
632.41876 144.27548 775
634.02466 144.08932 774
636.44659 144.08932 774
638.86853 144.08932 774
641.29047 144.08932 774
643.7124 144.08932 774
646.13434 144.08932 774
648.55621 144.08932 774
650.97815 144.08932 774
653.40009 144.08932 774
655.82202 144.08932 774
658.24396 144.08932 774
661.51947 144.27548 775
663.94452 144.27548 775
666.36957 144.27548 775
668.79462 144.27548 775
671.21967 144.27548 775
673.64471 144.27548 775
676.06976 144.27548 775
678.49487 144.27548 775
680.04132 144.08932 774
682.46326 144.08932 774
684.88519 144.08932 774
686.41913 143.90317 773
688.83789 143.90317 773
691.25671 143.90317 773
693.67554 143.90317 773
696.0943 143.90317 773
698.51312 143.90317 773
700.93195 143.90317 773
703.35071 143.90317 773
705.76953 143.90317 773
708.18829 143.90317 773
710.60712 143.90317 773
713.9483 144.08932 774
716.37024 144.08932 774
717.86353 143.90317 773
720.28229 143.90317 773
722.70111 143.90317 773
725.11993 143.90317 773
727.5387 143.90317 773
729.95752 143.90317 773
732.37634 143.90317 773
734.7951 143.90317 773
737.21393 143.90317 773
739.63269 143.90317 773
742.05151 143.90317 773
744.47034 143.90317 773
746.8891 143.90317 773
748.3385 143.717 772
750.75421 143.717 772
753.16986 143.717 772
755.58551 143.717 772
758.00122 143.717 772
760.41687 143.717 772
761.84442 143.53084 771
764.25696 143.53084 771
766.66949 143.53084 771
770.07959 143.717 772
-693.83997 150.28181 797
-693.08087 150.65894 799
-691.44507 150.84749 800
-689.80298 151.03606 801
-688.15454 151.22461 802
-685.64502 151.22461 802
-683.98724 151.41318 803
-682.32324 151.60173 804
-679.80743 151.60173 804
-677.29169 151.60173 804
-675.61511 151.7903 805
-673.09619 151.7903 805
-671.41028 151.97885 806
-668.05835 151.7903 805
-665.53943 151.7903 805
-662.19684 151.60173 804
-660.50153 151.7903 805
-657.9826 151.7903 805
-655.46368 151.7903 805
-652.94476 151.7903 805
-650.42584 151.7903 805
-647.90692 151.7903 805
-645.38794 151.7903 805
-642.86902 151.7903 805
-640.3501 151.7903 805
-637.83118 151.7903 805
-635.31226 151.7903 805
-632.79333 151.7903 805
-630.27435 151.7903 805
-627.75543 151.7903 805
-625.23651 151.7903 805
-622.71759 151.7903 805
-620.19867 151.7903 805
-617.67975 151.7903 805
-614.39661 151.60173 804
-611.8808 151.60173 804
-610.12292 151.7903 805
-607.604 151.7903 805
-605.83667 151.97885 806
-603.31464 151.97885 806
-600.79254 151.97885 806
-598.27051 151.97885 806
-595.74847 151.97885 806
-593.22638 151.97885 806
-590.70435 151.97885 806
-588.18225 151.97885 806
-585.66022 151.97885 806
-582.41467 151.7903 805
-579.89575 151.7903 805
-578.09406 151.97885 806
-575.57196 151.97885 806
-573.04993 151.97885 806
-571.23572 152.1674 807
-568.71051 152.1674 807
-566.1853 152.1674 807
-563.66016 152.1674 807
-561.13495 152.1674 807
-558.60974 152.1674 807
-556.08459 152.1674 807
-553.55939 152.1674 807
-551.03418 152.1674 807
-548.50903 152.1674 807
-546.6604 152.35597 808
-544.13208 152.35597 808
-541.60376 152.35597 808
-539.07544 152.35597 808
-536.54712 152.35597 808
-534.0188 152.35597 808
-531.49048 152.35597 808
-528.96216 152.35597 808
-526.43384 152.35597 808
-523.90552 152.35597 808
-521.3772 152.35597 808
-518.84888 152.35597 808
-516.32056 152.35597 808
-514.42816 152.54453 809
-511.8967 152.54453 809
-509.36523 152.54453 809
-507.46027 152.73309 810
-504.92569 152.73309 810
-501.7709 152.54453 809
-499.23944 152.54453 809
-494.86603 151.97885 806
-491.12231 151.60173 804
-486.78336 151.03606 801
-445.21997 143.30511 760
-441.67648 142.92799 758
-438.14551 142.55087 756
-435.20349 142.36232 755
-432.84103 142.36232 755
-429.90836 142.17375 754
-427.54901 142.17375 754
-425.18967 142.17375 754
-422.83032 142.17375 754
-420.47098 142.17375 754
-418.66617 142.36232 755
-416.30368 142.36232 755
-413.94122 142.36232 755
-411.57874 142.36232 755
-409.21625 142.36232 755
-406.85376 142.36232 755
-404.4913 142.36232 755
-402.12881 142.36232 755
-399.76633 142.36232 755
-397.40387 142.36232 755
-395.04138 142.36232 755
-393.19904 142.55087 756
-391.35037 142.73944 757
-388.98166 142.73944 757
-387.12366 142.92799 758
-385.25937 143.11655 759
-383.89328 143.49367 761
-383.01602 144.05936 764
-381.6218 144.43648 766
-381.20517 145.19072 770
-380.76355 145.94495 774
-380.29688 146.69919 778
-379.95383 151.41318 803
-378.85129 151.97885 806
-377.26303 152.35597 808
-375.66229 152.73309 810
-373.58835 152.92165 811
-371.05063 152.92165 811
-368.05856 152.73309 810
-365.52399 152.73309 810
-362.54126 152.54453 809
-359.56482 152.35597 808
-357.0365 152.35597 808
-354.50818 152.35597 808
-351.54422 152.1674 807
-349.01904 152.1674 807
-346.49384 152.1674 807
-343.96866 152.1674 807
-341.44348 152.1674 807
-338.49832 151.97885 806
-336.3931 152.1674 807
-333.86789 152.1674 807
-331.34271 152.1674 807
-328.4101 151.97885 806
-325.88803 151.97885 806
-323.36597 151.97885 806
-320.44583 151.7903 805
-317.92688 151.7903 805
-315.40796 151.7903 805
-312.88904 151.7903 805
-309.98456 151.60173 804
-307.46875 151.60173 804
-304.95294 151.60173 804
-302.43713 151.60173 804
-299.92136 151.60173 804
-297.40555 151.60173 804
-294.88974 151.60173 804
-292.37393 151.60173 804
-289.85812 151.60173 804
-287.34235 151.60173 804
-284.82654 151.60173 804
-281.95959 151.41318 803
-279.4469 151.41318 803
-276.93423 151.41318 803
-274.42157 151.41318 803
-271.90891 151.41318 803
-269.39621 151.41318 803
-266.88354 151.41318 803
-264.37088 151.41318 803
-261.85822 151.41318 803
-259.34552 151.41318 803
-256.83286 151.41318 803
-254.32019 151.41318 803
-251.49394 151.22461 802
-248.98439 151.22461 802
-246.47485 151.22461 802
-243.9653 151.22461 802
-241.45576 151.22461 802
-238.64827 151.03606 801
-235.25745 150.47037 798
-232.17706 150.09325 796
-229.10919 149.71613 794
-226.33925 149.52757 793
-223.29327 149.15045 791
-220.53897 148.9619 790
-218.06699 148.9619 790
-215.59499 148.9619 790
-213.123 148.9619 790
-210.651 148.9619 790
-208.179 148.9619 790
-205.44664 148.77333 789
-203.23503 148.9619 790
-200.76303 148.9619 790
-198.54204 149.15045 791
-196.06691 149.15045 791
-193.5918 149.15045 791
-191.11667 149.15045 791
-188.64154 149.15045 791
-186.16643 149.15045 791
-183.6913 149.15045 791
-181.21617 149.15045 791
-178.51508 148.9619 790
-176.04309 148.9619 790
-173.35138 148.77333 789
-170.88252 148.77333 789
-168.41365 148.77333 789
-165.94479 148.77333 789
-163.47592 148.77333 789
-161.00705 148.77333 789
-158.53819 148.77333 789
-156.06932 148.77333 789
-153.79514 148.9619 790
-151.13159 148.77333 789
-148.66273 148.77333 789
-146.19386 148.77333 789
-143.72499 148.77333 789
-141.25613 148.77333 789
-138.78726 148.77333 789
-136.31841 148.77333 789
-133.84953 148.77333 789
-131.38068 148.77333 789
-128.9118 148.77333 789
-126.44294 148.77333 789
-123.81695 148.58478 788
-121.35121 148.58478 788
-118.88548 148.58478 788
-116.41974 148.58478 788
-113.954 148.58478 788
-111.48827 148.58478 788
-109.02253 148.58478 788
-106.55679 148.58478 788
-104.09106 148.58478 788
-101.62532 148.58478 788
-99.159584 148.58478 788
-96.571129 148.39622 787
-94.108528 148.39622 787
-91.64592 148.39622 787
-89.183311 148.39622 787
-86.720703 148.39622 787
-84.258095 148.39622 787
-81.899429 148.58478 788
-79.433693 148.58478 788
-76.870277 148.39622 787
-74.407669 148.39622 787
-71.945061 148.39622 787
-69.482452 148.39622 787
-67.019844 148.39622 787
-64.557236 148.39622 787
-62.094631 148.39622 787
-59.632023 148.39622 787
-57.169415 148.39622 787
-54.70681 148.39622 787
-52.244202 148.39622 787
-49.781597 148.39622 787
-47.318989 148.39622 787
-44.856384 148.39622 787
-42.339909 148.20766 786
-39.880428 148.20766 786
-37.420952 148.20766 786
-34.961475 148.20766 786
-32.501995 148.20766 786
-30.042517 148.20766 786
-27.583038 148.20766 786
-25.123562 148.20766 786
-22.664083 148.20766 786
-20.204605 148.20766 786
-17.745127 148.20766 786
-15.285648 148.20766 786
-12.82617 148.20766 786
-10.366692 148.20766 786
-7.9072132 148.20766 786
-5.4546661 148.39622 787
-2.9882569 148.20766 786
-0.52877879 148.20766 786
1.9306993 148.20766 786
4.3845921 148.0191 785
6.840941 148.0191 785
9.2854462 147.83054 784
11.753639 148.0191 785
14.209989 148.0191 785
16.666338 148.0191 785
19.147045 148.20766 786
21.606524 148.20766 786
24.066002 148.20766 786
26.52548 148.20766 786
28.984959 148.20766 786
31.444437 148.20766 786
33.903915 148.20766 786
36.363392 148.20766 786
38.822872 148.20766 786
41.282349 148.20766 786
43.741829 148.20766 786
46.201305 148.20766 786
48.660786 148.20766 786
51.120262 148.20766 786
53.511574 148.0191 785
55.967926 148.0191 785
58.424274 148.0191 785
60.880623 148.0191 785
63.336971 148.0191 785
65.709503 147.83054 784
68.162727 147.83054 784
70.615944 147.83054 784
73.162369 148.0191 785
75.618713 148.0191 785
77.975609 147.83054 784
80.428825 147.83054 784
82.88205 147.83054 784
85.335266 147.83054 784
87.78849 147.83054 784
90.241707 147.83054 784
92.576691 147.64198 783
95.026787 147.64198 783
97.476875 147.64198 783
99.926964 147.64198 783
102.37705 147.64198 783
104.82714 147.64198 783
107.14022 147.45343 782
109.58719 147.45343 782
112.03415 147.45343 782
114.48111 147.45343 782
116.92807 147.45343 782
119.52769 147.64198 783
121.97778 147.64198 783
124.42786 147.64198 783
126.87796 147.64198 783
129.32805 147.64198 783
131.60985 147.45343 782
134.05681 147.45343 782
136.50377 147.45343 782
138.95073 147.45343 782
141.39769 147.45343 782
143.84465 147.45343 782
146.29161 147.45343 782
148.73857 147.45343 782
150.9922 147.26486 781
153.43604 147.26486 781
156.07945 147.45343 782
158.3237 147.26486 781
160.76753 147.26486 781
163.0024 147.07631 780
165.6552 147.26486 781
168.09903 147.26486 781
170.54286 147.26486 781
172.98669 147.26486 781
175.43053 147.26486 781
177.87436 147.26486 781
180.31819 147.26486 781
182.76202 147.26486 781
185.20586 147.26486 781
187.40944 147.07631 780
189.85014 147.07631 780
192.29085 147.07631 780
194.73155 147.07631 780
197.17226 147.07631 780
199.61295 147.07631 780
202.05365 147.07631 780
204.49435 147.07631 780
206.93506 147.07631 780
209.10733 146.88774 779
211.54489 146.88774 779
213.98247 146.88774 779
216.14224 146.69919 778
218.57669 146.69919 778
221.01114 146.69919 778
223.44557 146.69919 778
225.88002 146.69919 778
228.31447 146.69919 778
230.74892 146.69919 778
233.18336 146.69919 778
235.6178 146.69919 778
238.05225 146.69919 778
240.48669 146.69919 778
242.92114 146.69919 778
245.67094 146.88774 779
247.79002 146.69919 778
250.22447 146.69919 778
252.65892 146.69919 778
255.09337 146.69919 778
257.5278 146.69919 778
259.96225 146.69919 778
262.05942 146.51064 777
264.49072 146.51064 777
266.92206 146.51064 777
269.35336 146.51064 777
271.78467 146.51064 777
274.56894 146.69919 778
276.64731 146.51064 777
279.43781 146.69919 778
281.87225 146.69919 778
284.67212 146.88774 779
287.47827 147.07631 780
290.29065 147.26486 781
292.7345 147.26486 781
295.55627 147.45343 782
298.38431 147.64198 783
300.83441 147.64198 783
303.28448 147.64198 783
305.34415 147.45343 782
307.79111 147.45343 782
310.23807 147.45343 782
313.08487 147.64198 783
315.53494 147.64198 783
317.98505 147.64198 783
320.43515 147.64198 783
322.88522 147.64198 783
325.33533 147.64198 783
328.20404 147.83054 784
330.2355 147.64198 783
332.26071 147.45343 782
334.70767 147.45343 782
337.15463 147.45343 782
339.16733 147.26486 781
341.61115 147.26486 781
344.05499 147.26486 781
346.49881 147.26486 781
348.94266 147.26486 781
351.38647 147.26486 781
354.28339 147.45343 782
356.73035 147.45343 782
359.17731 147.45343 782
361.62427 147.45343 782
364.07123 147.45343 782
366.51819 147.45343 782
368.49332 147.26486 781
370.93713 147.26486 781
373.38098 147.26486 781
375.8248 147.26486 781
378.26865 147.26486 781
380.71246 147.26486 781
382.66571 147.07631 780
385.10641 147.07631 780
387.54712 147.07631 780
389.98782 147.07631 780
392.42853 147.07631 780
395.37546 147.26486 781
397.81931 147.26486 781
399.75064 147.07631 780
402.19135 147.07631 780
404.63205 147.07631 780
407.07275 147.07631 780
408.98843 146.88774 779
411.42599 146.88774 779
413.86359 146.88774 779
416.30115 146.88774 779
418.2012 146.69919 778
421.1763 146.88774 779
423.0701 146.69919 778
425.50455 146.69919 778
427.939 146.69919 778
430.37341 146.69919 778
432.80786 146.69919 778
435.24231 146.69919 778
437.67676 146.69919 778
440.11121 146.69919 778
443.11447 146.88774 779
444.9801 146.69919 778
447.41455 146.69919 778
449.849 146.69919 778
452.28345 146.69919 778
454.7179 146.69919 778
457.15231 146.69919 778
459.58676 146.69919 778
462.02121 146.69919 778
464.45566 146.69919 778
467.4902 146.88774 779
469.9278 146.88774 779
471.759 146.69919 778
474.80295 146.88774 779
476.6279 146.69919 778
479.06235 146.69919 778
481.49677 146.69919 778
483.93121 146.69919 778
485.74054 146.51064 777
488.17184 146.51064 777
490.60318 146.51064 777
492.3999 146.32207 776
494.82809 146.32207 776
497.25629 146.32207 776
499.68448 146.32207 776
502.11267 146.32207 776
504.54083 146.32207 776
506.96902 146.32207 776
510.05368 146.51064 777
512.48499 146.51064 777
514.91632 146.51064 777
518.01349 146.69919 778
520.44788 146.69919 778
522.21027 146.51064 777
524.6416 146.51064 777
527.07294 146.51064 777
529.50421 146.51064 777
531.93555 146.51064 777
534.36688 146.51064 777
536.1073 146.32207 776
538.53546 146.32207 776
540.96362 146.32207 776
543.39185 146.32207 776
545.82001 146.32207 776
547.54175 146.13351 775
549.25714 145.94495 774
552.39185 146.13351 775
554.81689 146.13351 775
556.52295 145.94495 774
558.94489 145.94495 774
561.36682 145.94495 774
563.78876 145.94495 774
566.21063 145.94495 774
568.63257 145.94495 774
571.0545 145.94495 774
574.21735 146.13351 775
576.6424 146.13351 775
579.06744 146.13351 775
581.49255 146.13351 775
583.9176 146.13351 775
585.58606 145.94495 774
588.008 145.94495 774
590.42993 145.94495 774
592.85187 145.94495 774
595.2738 145.94495 774
597.69574 145.94495 774
600.11768 145.94495 774
602.53961 145.94495 774
604.96155 145.94495 774
607.38342 145.94495 774
609.80536 145.94495 774
612.22729 145.94495 774
614.64923 145.94495 774
617.07117 145.94495 774
618.69275 145.75639 773
621.11151 145.75639 773
623.53033 145.75639 773
625.9491 145.75639 773
628.36792 145.75639 773
630.78674 145.75639 773
632.38635 145.56784 772
634.802 145.56784 772
637.21765 145.56784 772
639.63336 145.56784 772
642.04901 145.56784 772
644.46466 145.56784 772
646.88037 145.56784 772
648.45496 145.37927 771
651.71167 145.56784 772
654.12738 145.56784 772
656.54303 145.56784 772
658.95874 145.56784 772
662.23114 145.75639 773
664.6499 145.75639 773
667.06873 145.75639 773
669.48755 145.75639 773
671.90631 145.75639 773
674.32513 145.75639 773
676.7439 145.75639 773
678.28406 145.56784 772
680.69977 145.56784 772
684.00031 145.75639 773
685.53107 145.56784 772
687.05566 145.37927 771
689.4682 145.37927 771
691.88074 145.37927 771
694.29327 145.37927 771
696.70581 145.37927 771
699.11835 145.37927 771
701.53088 145.37927 771
703.94342 145.37927 771
706.35596 145.37927 771
708.76849 145.37927 771
711.18109 145.37927 771
713.59363 145.37927 771
716.00616 145.37927 771
718.4187 145.37927 771
720.83124 145.37927 771
723.24377 145.37927 771
725.65631 145.37927 771
728.06885 145.37927 771
730.48138 145.37927 771
732.89392 145.37927 771
735.30646 145.37927 771
737.71899 145.37927 771
740.13153 145.37927 771
742.54413 145.37927 771
744.95667 145.37927 771
747.3692 145.37927 771
749.78174 145.37927 771
752.19427 145.37927 771
754.60681 145.37927 771
757.01935 145.37927 771
758.4469 145.19072 770
760.85632 145.19072 770
762.27448 145.00215 769
764.68079 145.00215 769
767.08704 145.00215 769
-693.83997 152.19258 797
-692.21344 152.38354 798
-690.58075 152.57449 799
-688.94177 152.76546 800
-687.29651 152.95641 801
-685.64502 153.14737 802
-683.13544 153.14737 802
-681.47461 153.33832 803
-678.96191 153.33832 803
-676.44922 153.33832 803
-674.77588 153.52928 804
-672.26007 153.52928 804
-669.74426 153.52928 804
-667.22845 153.52928 804
-663.88586 153.33832 803
-661.37323 153.33832 803
-659.68103 153.52928 804
-657.16522 153.52928 804
-654.64941 153.52928 804
-652.13367 153.52928 804
-649.61786 153.52928 804
-647.10205 153.52928 804
-644.58624 153.52928 804
-641.27185 153.33832 803
-639.55463 153.52928 804
-637.03882 153.52928 804
-634.52301 153.52928 804
-632.0072 153.52928 804
-629.49139 153.52928 804
-626.97565 153.52928 804
-624.45984 153.52928 804
-621.94403 153.52928 804
-619.42822 153.52928 804
-616.14508 153.33832 803
-613.63245 153.33832 803
-611.11975 153.33832 803
-609.36499 153.52928 804
-606.84918 153.52928 804
-604.33337 153.52928 804
-602.56616 153.72023 805
-600.04718 153.72023 805
-597.52826 153.72023 805
-595.00934 153.72023 805
-591.75439 153.52928 804
-589.9715 153.72023 805
-587.45258 153.72023 805
-584.93359 153.72023 805
-582.41467 153.72023 805
-579.17535 153.52928 804
-577.37683 153.72023 805
-574.85791 153.72023 805
-572.33899 153.72023 805
-570.52783 153.91119 806
-568.0058 153.91119 806
-565.4837 153.91119 806
-562.96167 153.91119 806
-560.43958 153.91119 806
-557.91754 153.91119 806
-556.08459 154.10216 807
-552.87341 153.91119 806
-550.35138 153.91119 806
-547.82928 153.91119 806
-545.98383 154.10216 807
-543.45862 154.10216 807
-540.93341 154.10216 807
-538.40826 154.10216 807
-535.88306 154.10216 807
-533.35785 154.10216 807
-530.8327 154.10216 807
-528.3075 154.10216 807
-525.78229 154.10216 807
-523.25708 154.10216 807
-520.73193 154.10216 807
-518.84888 154.29311 808
-516.32056 154.29311 808
-513.79224 154.29311 808
-511.26392 154.29311 808
-508.7356 154.29311 808
-506.8338 154.48405 809
-504.30234 154.48405 809
-501.7709 154.48405 809
-498.62234 154.29311 808
-494.86603 153.91119 806
-491.12231 153.52928 804
-486.78336 152.95641 801
-449.36496 145.70004 763
-445.21997 145.12718 760
-441.67648 144.74527 758
-438.72507 144.55431 757
-435.77988 144.36334 756
-432.84103 144.17239 755
-430.47855 144.17239 755
-427.54901 143.98143 754
-425.18967 143.98143 754
-422.83032 143.98143 754
-421.02866 144.17239 755
-418.66617 144.17239 755
-416.30368 144.17239 755
-413.94122 144.17239 755
-411.57874 144.17239 755
-409.21625 144.17239 755
-406.85376 144.17239 755
-404.4913 144.17239 755
-402.12881 144.17239 755
-400.29584 144.36334 756
-397.93024 144.36334 756
-395.56464 144.36334 756
-393.19904 144.36334 756
-390.83344 144.36334 756
-388.98166 144.55431 757
-387.12366 144.74527 758
-385.25937 144.93622 759
-383.89328 145.31813 761
-382.51468 145.70004 763
-381.12357 146.08197 765
-380.71011 146.84578 769
-380.27161 147.60962 773
-379.80807 148.37344 777
-379.48068 153.14737 802
-378.38123 153.72023 805
-376.79611 154.10216 807
-375.19849 154.48405 809
-372.66705 154.48405 809
-370.13559 154.48405 809
-367.60416 154.48405 809
-364.62146 154.29311 808
-362.09314 154.29311 808
-359.11981 154.10216 807
-356.5946 154.10216 807
-354.06943 154.10216 807
-351.10861 153.91119 806
-348.58655 153.91119 806
-346.06451 153.91119 806
-343.54245 153.91119 806
-341.02039 153.91119 806
-338.07834 153.72023 805
-335.97626 153.91119 806
-333.45419 153.91119 806
-330.93213 153.91119 806
-328.00262 153.72023 805
-325.48367 153.72023 805
-322.96475 153.72023 805
-320.04776 153.52928 804
-317.53195 153.52928 804
-315.01614 153.52928 804
-312.50037 153.52928 804
-309.599 153.33832 803
-307.0863 153.33832 803
-304.57364 153.33832 803
-302.06097 153.33832 803
-299.54831 153.33832 803
-297.03561 153.33832 803
-294.52295 153.33832 803
-292.01028 153.33832 803
-289.49762 153.33832 803
-286.98492 153.33832 803
-284.47226 153.33832 803
-281.60846 153.14737 802
-279.09891 153.14737 802
-276.58939 153.14737 802
-274.07983 153.14737 802
-271.57028 153.14737 802
-269.06076 153.14737 802
-266.55121 153.14737 802
-264.04166 153.14737 802
-261.5321 153.14737 802
-258.69958 152.95641 801
-256.19318 152.95641 801
-253.68675 152.95641 801
-251.49394 153.14737 802
-248.98439 153.14737 802
-246.16751 152.95641 801
-243.6611 152.95641 801
-240.85364 152.76546 800
-238.0524 152.57449 799
-234.96262 152.19258 797
-231.88536 151.81067 795
-228.82062 151.42876 793
-226.0538 151.23781 792
-223.01097 150.85588 790
-220.25983 150.66492 789
-217.79097 150.66492 789
-215.3221 150.66492 789
-212.85323 150.66492 789
-210.38437 150.66492 789
-207.9155 150.66492 789
-205.44664 150.66492 789
-202.97777 150.66492 789
-200.76303 150.85588 790
-198.29105 150.85588 790
-195.81905 150.85588 790
-193.34705 150.85588 790
-190.87506 150.85588 790
-188.40306 150.85588 790
-185.93106 150.85588 790
-183.45908 150.85588 790
-180.98708 150.85588 790
-178.51508 150.85588 790
-175.82025 150.66492 789
-173.35138 150.66492 789
-170.66594 150.47397 788
-168.2002 150.47397 788
-165.73447 150.47397 788
-163.26872 150.47397 788
-160.80299 150.47397 788
-158.33725 150.47397 788
-155.87152 150.47397 788
-153.60046 150.66492 789
-151.13159 150.66492 789
-148.4743 150.47397 788
-146.00858 150.47397 788
-143.54283 150.47397 788
-141.0771 150.47397 788
-138.61136 150.47397 788
-136.14563 150.47397 788
-133.67989 150.47397 788
-131.04764 150.28302 787
-128.58504 150.28302 787
-126.12243 150.28302 787
-123.65982 150.28302 787
-121.19721 150.28302 787
-118.7346 150.28302 787
-116.272 150.28302 787
-113.80939 150.28302 787
-111.34678 150.28302 787
-108.88418 150.28302 787
-106.42157 150.28302 787
-103.95896 150.28302 787
-101.49635 150.28302 787
-99.033737 150.28302 787
-96.448425 150.09206 786
-93.988945 150.09206 786
-91.529472 150.09206 786
-89.069992 150.09206 786
-86.610512 150.09206 786
-84.151031 150.09206 786
-81.691559 150.09206 786
-79.332878 150.28302 787
-76.772598 150.09206 786
-74.313118 150.09206 786
-71.853645 150.09206 786
-69.394165 150.09206 786
-66.934685 150.09206 786
-64.475212 150.09206 786
-62.015732 150.09206 786
-59.556252 150.09206 786
-57.096775 150.09206 786
-54.637295 150.09206 786
-52.177818 150.09206 786
-49.718342 150.09206 786
-47.258865 150.09206 786
-44.799385 150.09206 786
-42.286041 149.90111 785
-39.829693 149.90111 785
-37.373344 149.90111 785
-34.916992 149.90111 785
-32.460644 149.90111 785
-30.004295 149.90111 785
-27.547947 149.90111 785
-25.091597 149.90111 785
-22.635246 149.90111 785
-20.178898 149.90111 785
-17.722549 149.90111 785
-15.2662 149.90111 785
-12.809852 149.90111 785
-10.353502 149.90111 785
-7.8971534 149.90111 785
-5.4477348 150.09206 786
-2.9844551 149.90111 785
-0.52810603 149.90111 785
1.9282432 149.90111 785
4.3790064 149.71014 784
6.8322268 149.71014 784
9.2736034 149.51918 783
11.738667 149.71014 784
14.191886 149.71014 784
16.645107 149.71014 784
19.122686 149.90111 785
21.579037 149.90111 785
24.035385 149.90111 785
26.491732 149.90111 785
28.984959 150.09206 786
31.40443 149.90111 785
33.860779 149.90111 785
36.317127 149.90111 785
38.773479 149.90111 785
41.229828 149.90111 785
43.686176 149.90111 785
46.142525 149.90111 785
48.598873 149.90111 785
51.055222 149.90111 785
53.443409 149.71014 784
55.896626 149.71014 784
58.349846 149.71014 784
60.803066 149.71014 784
63.256287 149.71014 784
65.625694 149.51918 783
68.075783 149.51918 783
70.525871 149.51918 783
73.069168 149.71014 784
75.522385 149.71014 784
77.876144 149.51918 783
80.326241 149.51918 783
82.776329 149.51918 783
85.226418 149.51918 783
87.676514 149.51918 783
90.126602 149.51918 783
92.458458 149.32823 782
94.905418 149.32823 782
97.352379 149.32823 782
99.799347 149.32823 782
102.24631 149.32823 782
104.69326 149.32823 782
107.00321 149.13727 781
109.44704 149.13727 781
111.89088 149.13727 781
114.33471 149.13727 781
116.77854 149.13727 781
119.37503 149.32823 782
121.82199 149.32823 782
124.26896 149.32823 782
126.71592 149.32823 782
129.16287 149.32823 782
131.60985 149.32823 782
133.88538 149.13727 781
136.32921 149.13727 781
138.77304 149.13727 781
141.21687 149.13727 781
143.66071 149.13727 781
146.10454 149.13727 781
148.54837 149.13727 781
150.9922 149.13727 781
153.23958 148.94632 780
155.68028 148.94632 780
158.12099 148.94632 780
160.35585 148.75536 779
162.79343 148.75536 779
165.231 148.75536 779
167.8838 148.94632 780
170.32451 148.94632 780
172.76521 148.94632 780
175.20592 148.94632 780
177.64662 148.94632 780
180.08733 148.94632 780
182.52803 148.94632 780
184.96873 148.94632 780
187.16916 148.75536 779
189.60674 148.75536 779
192.04431 148.75536 779
194.48189 148.75536 779
196.91946 148.75536 779
199.35704 148.75536 779
201.79462 148.75536 779
204.23219 148.75536 779
206.66975 148.75536 779
209.10733 148.75536 779
211.27335 148.56441 778
213.70779 148.56441 778
216.14224 148.56441 778
218.29573 148.37344 777
220.72704 148.37344 777
223.15836 148.37344 777
225.58968 148.37344 777
228.021 148.37344 777
230.4523 148.37344 777
232.88362 148.37344 777
235.6178 148.56441 778
238.05225 148.56441 778
240.17757 148.37344 777
242.60889 148.37344 777
245.35559 148.56441 778
247.47153 148.37344 777
249.90283 148.37344 777
252.33415 148.37344 777
254.76547 148.37344 777
257.19678 148.37344 777
259.62811 148.37344 777
261.72217 148.18248 776
264.15036 148.18248 776
266.57852 148.18248 776
269.00671 148.18248 776
271.43491 148.18248 776
274.216 148.37344 777
276.29129 148.18248 776
278.71948 148.18248 776
281.50995 148.37344 777
284.3067 148.56441 778
287.10971 148.75536 779
289.54727 148.75536 779
292.35968 148.94632 780
295.17831 149.13727 781
298.00327 149.32823 782
300.45023 149.32823 782
302.89719 149.32823 782
304.95364 149.13727 781
307.39749 149.13727 781
309.84131 149.13727 781
312.68503 149.32823 782
315.13199 149.32823 782
317.57895 149.32823 782
320.02591 149.32823 782
322.47287 149.32823 782
324.91983 149.32823 782
327.36679 149.32823 782
329.81375 149.32823 782
331.83582 149.13727 781
334.27966 149.13727 781
336.72348 149.13727 781
338.73306 148.94632 780
341.17377 148.94632 780
343.61447 148.94632 780
346.05518 148.94632 780
348.49588 148.94632 780
350.93658 148.94632 780
353.83032 149.13727 781
356.27414 149.13727 781
358.71799 149.13727 781
361.1618 149.13727 781
363.60565 149.13727 781
366.04947 149.13727 781
368.02148 148.94632 780
370.46219 148.94632 780
372.90289 148.94632 780
375.3436 148.94632 780
377.7843 148.94632 780
380.22501 148.94632 780
382.66571 148.94632 780
385.10641 148.94632 780
387.05026 148.75536 779
389.48782 148.75536 779
391.92542 148.75536 779
394.36298 148.75536 779
397.30994 148.94632 780
399.23813 148.75536 779
401.67569 148.75536 779
404.11328 148.75536 779
406.55084 148.75536 779
408.46341 148.56441 778
410.89786 148.56441 778
413.33231 148.56441 778
415.76675 148.56441 778
418.2012 148.56441 778
420.63565 148.56441 778
422.52631 148.37344 777
424.95764 148.37344 777
427.38895 148.37344 777
429.82025 148.37344 777
432.25159 148.37344 777
434.68289 148.37344 777
437.1142 148.37344 777
439.54553 148.37344 777
441.97684 148.37344 777
444.40817 148.37344 777
446.83948 148.37344 777
449.27078 148.37344 777
451.70212 148.37344 777
454.13342 148.37344 777
456.56473 148.37344 777
458.99606 148.37344 777
461.42737 148.37344 777
463.85867 148.37344 777
466.29001 148.37344 777
468.72131 148.37344 777
471.15265 148.37344 777
473.58395 148.37344 777
476.01526 148.37344 777
478.44659 148.37344 777
480.25897 148.18248 776
482.68716 148.18248 776
485.11536 148.18248 776
486.91528 147.99153 775
489.97171 148.18248 776
491.76538 147.99153 775
494.19043 147.99153 775
496.61551 147.99153 775
499.04056 147.99153 775
501.46561 147.99153 775
503.89069 147.99153 775
506.31573 147.99153 775
509.39722 148.18248 776
511.82541 148.18248 776
514.2536 148.18248 776
516.68176 148.18248 776
519.77893 148.37344 777
521.53815 148.18248 776
523.96637 148.18248 776
526.39453 148.18248 776
528.82269 148.18248 776
531.25092 148.18248 776
532.99139 147.99153 775
536.1073 148.18248 776
537.84149 147.99153 775
540.26654 147.99153 775
542.69159 147.99153 775
545.11664 147.99153 775
547.54175 147.99153 775
549.25714 147.80057 774
550.96631 147.60962 773
554.10101 147.80057 774
555.80396 147.60962 773
558.22272 147.60962 773
560.64154 147.60962 773
563.0603 147.60962 773
565.47913 147.60962 773
567.89795 147.60962 773
570.31671 147.60962 773
572.73553 147.60962 773
575.89838 147.80057 774
578.32031 147.80057 774
580.74225 147.80057 774
583.16418 147.80057 774
584.82953 147.60962 773
587.24835 147.60962 773
589.66711 147.60962 773
592.08594 147.60962 773
594.5047 147.60962 773
596.92352 147.60962 773
599.34235 147.60962 773
601.76111 147.60962 773
