ply
format ascii 1.0
comment PCL generated
element vertex 1836
property float x
property float y
property float z
element camera 0
property float view_px
property float view_py
property float view_pz
property float x_axisx
property float x_axisy
property float x_axisz
property float y_axisx
property float y_axisy
property float y_axisz
property float z_axisx
property float z_axisy
property float z_axisz
property float focal
property float scalex
property float scaley
property float centerx
property float centery
property int viewportx
property int viewporty
property float k1
property float k2
end_header
1360.2794 -335.55743 1381
1360.6482 -334.58551 1377
1360.9921 -333.61359 1373
1361.3107 -332.64166 1369
1361.6045 -331.66974 1365
1343.8131 -362.80075 1508
1346.7433 -362.31958 1506
1348.7637 -361.59781 1503
1350.7651 -360.87607 1500
1352.7479 -360.1543 1497
1354.7118 -359.43256 1494
1355.7472 -358.47025 1490
1357.6705 -357.74844 1487
1358.6588 -356.78613 1483
1358.7029 -355.58322 1478
1358.7156 -354.38031 1473
1359.6226 -353.41794 1469
1359.5759 -352.21503 1464
1359.4979 -351.01212 1459
1360.3236 -350.0498 1455
1360.186 -348.84686 1450
1360.0175 -347.64395 1445
1359.8174 -346.44104 1440
1359.5859 -345.23813 1435
1359.3235 -344.03519 1430
1359.9832 -343.07285 1426
1359.6611 -341.86993 1421
1360.2677 -340.90756 1417
1359.8862 -339.70465 1412
1359.4734 -338.50174 1407
1359.9988 -337.53943 1403
1359.5264 -336.33649 1398
1359.9984 -335.37415 1394
1359.4668 -334.17123 1389
1360.8674 -333.44949 1386
1360.2794 -332.24655 1381
1360.6482 -331.28421 1377
1360.9921 -330.3219 1373
1361.3107 -329.35956 1369
1360.6069 -328.15662 1364
1343.8131 -359.18539 1508
1347.6376 -358.94717 1507
1349.661 -358.23264 1504
1351.6656 -357.51807 1501
1352.7479 -356.56531 1497
1354.7118 -355.85077 1494
1355.7472 -354.89804 1490
1357.6705 -354.18344 1487
1358.6588 -353.23071 1483
1358.7029 -352.03979 1478
1358.7156 -350.84885 1473
1359.6226 -349.89609 1469
1360.5045 -348.94336 1465
1360.4297 -347.75244 1460
1361.2585 -346.79968 1456
1360.186 -345.37057 1450
1360.0175 -344.17966 1445
1359.8174 -342.98871 1440
1360.5334 -342.03595 1436
1360.274 -340.845 1431
1359.9832 -339.65408 1426
1360.618 -338.70132 1422
1360.2677 -337.51038 1417
1359.8862 -336.31946 1412
1360.4397 -335.36673 1408
1359.9988 -334.17581 1403
1359.5264 -332.98486 1398
1359.9984 -332.0321 1394
1359.4668 -330.84119 1389
1360.8674 -330.12662 1386
1360.2794 -328.9357 1381
1359.6602 -327.74475 1376
1360.0007 -326.79199 1372
1360.3163 -325.83926 1368
1360.6069 -324.88651 1364
1342.6465 -356.51318 1512
1345.5953 -356.04163 1510
1348.5319 -355.57004 1508
1350.5583 -354.86267 1505
1352.5662 -354.15527 1502
1353.6515 -353.21216 1498
1355.6187 -352.50479 1495
1357.5669 -351.79739 1492
1358.5835 -350.85425 1488
1360.4911 -350.14688 1485
1360.5414 -348.96796 1480
1360.5604 -347.789 1475
1360.5482 -346.61005 1470
1361.4332 -345.66687 1466
1361.3615 -344.48795 1461
1361.2585 -343.30899 1456
1361.1241 -342.13004 1451
1360.9586 -340.95111 1446
1360.7616 -339.77216 1441
1360.5334 -338.5932 1436
1360.274 -337.41428 1431
1359.9832 -336.23532 1426
1360.618 -335.29214 1422
1360.2677 -334.11319 1417
1359.8862 -332.93427 1412
1359.4734 -331.75531 1407
1359.9988 -330.81216 1403
1359.5264 -329.63324 1398
1359.9984 -328.69006 1394
1359.4668 -327.51111 1389
1359.8856 -326.56799 1385
1360.2794 -325.62482 1381
1359.6602 -324.44586 1376
1360.0007 -323.50269 1372
1360.3163 -322.55957 1368
1361.6045 -321.8522 1365
1339.6849 -353.35501 1514
1343.5344 -353.12164 1513
1347.3777 -352.88821 1512
1350.3203 -352.42148 1510
1352.3531 -351.72128 1507
1353.4667 -350.78772 1503
1355.4587 -350.08755 1500
1357.4321 -349.38736 1497
1358.4768 -348.4538 1493
1360.4095 -347.75363 1490
1361.4072 -346.82007 1486
1361.4607 -345.65311 1481
1361.4828 -344.48615 1476
1361.4738 -343.31918 1471
1361.4332 -342.15222 1466
1361.3615 -340.98526 1461
1362.1934 -340.0517 1457
1362.0621 -338.88474 1452
1361.8998 -337.71777 1447
1360.7616 -336.31744 1441
1360.5334 -335.15048 1436
1360.274 -333.98352 1431
1359.9832 -332.81656 1426
1359.6611 -331.6496 1421
1360.2677 -330.716 1417
1359.8862 -329.54907 1412
1359.4734 -328.38211 1407
1359.9988 -327.44855 1403
1360.4989 -326.51498 1399
1359.9984 -325.34802 1394
1359.4668 -324.18106 1389
1359.8856 -323.24753 1385
1360.2794 -322.31393 1381
1359.6602 -321.14697 1376
1360.0007 -320.21338 1372
1361.3107 -319.51321 1369
1361.6045 -318.57968 1365
1341.1196 -351.34225 1521
1344.1093 -350.88025 1519
1347.9744 -350.64926 1518
1350.9421 -350.18729 1516
1353.8973 -349.72528 1514
1355.9426 -349.03232 1511
1357.0687 -348.10831 1507
1358.1698 -347.18436 1503
1359.2457 -346.26038 1499
1360.2966 -345.33643 1495
1361.3225 -344.41241 1491
1362.3235 -343.48843 1487
1362.38 -342.33347 1482
1362.4052 -341.1785 1477
1362.3993 -340.02353 1472
1362.3619 -338.86853 1467
1362.2933 -337.71356 1462
1362.1934 -336.55859 1457
1362.0621 -335.40363 1452
1361.8998 -334.24866 1447
1361.7059 -333.09369 1442
1360.5334 -331.70773 1436
1360.274 -330.55276 1431
1359.9832 -329.3978 1426
1359.6611 -328.24283 1421
1359.3077 -327.08786 1416
1358.9231 -325.93289 1411
1359.4734 -325.00888 1407
1359.9988 -324.08493 1403
1360.4989 -323.16095 1399
1359.9984 -322.00598 1394
1359.4668 -320.85101 1389
1358.9037 -319.69604 1384
1360.2794 -319.00305 1381
1359.6602 -317.84808 1376
1360.0007 -316.9241 1372
1360.3163 -316.00012 1368
1360.6069 -315.07614 1364
1344.6466 -348.61014 1525
1347.6487 -348.15292 1523
1350.6384 -347.69574 1521
1352.7244 -347.00995 1518
1354.7916 -346.32416 1515
1356.8401 -345.63834 1512
1357.9692 -344.72397 1508
1358.1698 -343.58099 1503
1359.2457 -342.6666 1499
1360.2966 -341.75223 1495
1361.3225 -340.83783 1491
1362.3235 -339.92343 1487
1362.38 -338.78043 1482
1362.4052 -337.63745 1477
1362.3993 -336.49448 1472
1362.3619 -335.35147 1467
1362.2933 -334.2085 1462
1362.1934 -333.06552 1457
1362.0621 -331.92255 1452
1361.8998 -330.77954 1447
1361.7059 -329.63657 1442
1360.5334 -328.26501 1436
1360.274 -327.12201 1431
1359.9832 -325.97903 1426
1359.6611 -324.83606 1421
1359.3077 -323.69305 1416
1357.96 -322.3215 1410
1359.4734 -321.63568 1407
1359.9988 -320.72131 1403
1360.4989 -319.80692 1399
1359.9984 -318.66394 1394
1359.4668 -317.52094 1389
1358.9037 -316.37796 1384
1360.2794 -315.69217 1381
1359.6602 -314.54919 1376
1360.0007 -313.6348 1372
1360.3163 -312.7204 1368
1360.6069 -311.80603 1364
1345.1464 -346.31119 1531
1347.2919 -345.6326 1528
1348.5336 -344.72778 1524
1350.6384 -344.04919 1521
1352.7244 -343.37061 1518
1355.6858 -342.91821 1516
1356.8401 -342.0134 1512
1358.8698 -341.33481 1509
1359.0734 -340.2038 1504
1359.2457 -339.07281 1499
1359.3867 -337.9418 1494
1360.4095 -337.03705 1490
1361.4072 -336.13223 1486
1361.4607 -335.00122 1481
1361.4828 -333.87024 1476
1361.4738 -332.73923 1471
1360.5045 -331.38205 1465
1360.4297 -330.25107 1460
1361.2585 -329.34625 1456
1361.1241 -328.21524 1451
1360.9586 -327.08426 1446
1360.7616 -325.95325 1441
1360.5334 -324.82227 1436
1360.274 -323.69125 1431
1359.9832 -322.56027 1426
1359.6611 -321.42926 1421
1359.3077 -320.29828 1416
1358.9231 -319.16727 1411
1359.4734 -318.26248 1407
1359.9988 -317.3577 1403
1360.4989 -316.45288 1399
1359.0228 -315.0957 1393
1359.4668 -314.19089 1389
1358.9037 -313.05988 1384
1360.2794 -312.38129 1381
1359.6602 -311.25031 1376
1360.0007 -310.34552 1372
1360.3163 -309.4407 1368
1359.6095 -308.30969 1363
1344.733 -343.7597 1536
1347.7821 -343.3121 1534
1349.0553 -342.41693 1530
1350.3033 -341.5217 1526
1351.5264 -340.62646 1522
1354.5067 -340.17889 1520
1356.5801 -339.50748 1517
1357.7374 -338.61227 1513
1359.7703 -337.94089 1510
1359.9771 -336.82187 1505
1360.1525 -335.70285 1500
1360.2966 -334.58386 1495
1360.4095 -333.46484 1490
1360.4911 -332.34583 1485
1360.5414 -331.22684 1480
1360.5604 -330.10782 1475
1360.5482 -328.9888 1470
1360.5045 -327.86978 1465
1360.4297 -326.75079 1460
1360.3236 -325.63177 1455
1361.1241 -324.73654 1451
1360.0175 -323.39377 1445
1359.8174 -322.27475 1440
1360.5334 -321.37952 1436
1360.274 -320.26053 1431
1359.9832 -319.14151 1426
1359.6611 -318.02249 1421
1359.3077 -316.9035 1416
1358.9231 -315.78448 1411
1359.4734 -314.88925 1407
1359.9988 -313.99405 1403
1359.5264 -312.87503 1398
1359.0228 -311.75604 1393
1358.488 -310.63702 1388
1358.9037 -309.74182 1384
1359.2944 -308.84662 1380
1359.6602 -307.95142 1376
1360.0007 -307.05621 1372
1360.3163 -306.16098 1368
1360.6069 -305.26578 1364
1343.4161 -340.96286 1540
1346.484 -340.52005 1538
1348.6606 -339.85583 1535
1350.8187 -339.19159 1532
1352.0731 -338.306 1528
1353.3024 -337.42038 1524
1355.3978 -336.75616 1521
1357.4744 -336.09195 1518
1358.6349 -335.20633 1514
1359.7703 -334.32074 1510
1359.9771 -333.21371 1505
1360.1525 -332.10669 1500
1360.2966 -330.99966 1495
1360.4095 -329.89264 1490
1360.4911 -328.78561 1485
1360.5414 -327.67859 1480
1360.5604 -326.57156 1475
1360.5482 -325.46457 1470
1360.5045 -324.35754 1465
1360.4297 -323.25052 1460
1360.3236 -322.14349 1455
1361.1241 -321.25784 1451
1360.9586 -320.15085 1446
1359.8174 -318.82242 1440
1359.5859 -317.71539 1435
1360.274 -316.82977 1431
1359.9832 -315.72275 1426
1359.6611 -314.61572 1421
1359.3077 -313.5087 1416
1358.9231 -312.40167 1411
1359.4734 -311.51605 1407
1359.9988 -310.63043 1403
1359.5264 -309.52341 1398
1359.0228 -308.41638 1393
1358.488 -307.30936 1388
1358.9037 -306.42374 1384
1358.3094 -305.31674 1379
1359.6602 -304.65253 1376
1360.0007 -303.76691 1372
1360.3163 -302.88129 1368
1359.6095 -301.77426 1363
1346.0331 -337.9278 1543
1348.235 -337.27078 1540
1351.2966 -336.83276 1538
1352.5822 -335.95673 1534
1354.7277 -335.29971 1531
1355.0782 -334.20468 1526
1357.1799 -333.54767 1523
1358.3685 -332.67163 1519
1358.6349 -331.5766 1514
1359.7703 -330.70059 1510
1359.9771 -329.60556 1505
1359.2457 -328.29147 1499
1360.2966 -327.41547 1495
1360.4095 -326.32043 1490
1361.4072 -325.4444 1486
1360.5414 -324.13037 1480
1361.4828 -323.25433 1476
1360.5482 -321.94031 1470
1360.5045 -320.84528 1465
1360.4297 -319.75024 1460
1360.3236 -318.65521 1455
1361.1241 -317.77914 1451
1360.9586 -316.68411 1446
1359.8174 -315.37009 1440
1359.5859 -314.27505 1435
1359.3235 -313.17999 1430
1359.9832 -312.30399 1426
1358.7043 -310.98993 1420
1358.3478 -309.8949 1415
1358.9231 -309.01889 1411
1359.4734 -308.14285 1407
1359.9988 -307.26682 1403
1359.5264 -306.17178 1398
1359.0228 -305.07675 1393
1358.488 -303.98172 1388
1357.9219 -302.88666 1383
1358.3094 -302.01065 1379
1358.672 -301.13461 1375
1359.0095 -300.25861 1371
1358.3276 -299.16357 1366
1358.6119 -298.28754 1362
1346.9055 -334.44513 1544
1349.9858 -334.0119 1542
1352.1752 -333.36209 1539
1353.4639 -332.49567 1535
1354.7277 -331.62921 1531
1355.9663 -330.76276 1527
1357.1799 -329.89636 1523
1358.3685 -329.02991 1519
1358.6349 -327.94684 1514
1359.7703 -327.08044 1510
1359.9771 -325.99738 1505
1359.2457 -324.69769 1499
1359.3867 -323.61465 1494
1360.4095 -322.74823 1490
1360.4911 -321.66519 1485
1360.5414 -320.58215 1480
1360.5604 -319.49911 1475
1360.5482 -318.41605 1470
1360.5045 -317.33301 1465
1360.4297 -316.24997 1460
1360.3236 -315.1669 1455
1361.1241 -314.30045 1451
1360.9586 -313.21741 1446
1359.8174 -311.91776 1440
1359.5859 -310.83472 1435
1359.3235 -309.75165 1430
1359.0295 -308.66861 1425
1358.7043 -307.58557 1420
1358.3478 -306.5025 1415
1357.96 -305.41946 1410
1359.4734 -304.76965 1407
1359.9988 -303.9032 1403
1359.5264 -302.82013 1398
1359.0228 -301.73709 1393
1358.488 -300.65405 1388
1357.9219 -299.57098 1383
1357.3245 -298.48795 1378
1358.672 -297.83813 1375
1358.0183 -296.7551 1370
1358.3276 -295.88864 1366
1358.6119 -295.02222 1362
1349.0278 -332.45715 1552
1350.3949 -331.60034 1548
1351.7368 -330.74347 1544
1353.9324 -330.10086 1541
1355.2274 -329.24399 1537
1356.4973 -328.38715 1533
1357.7423 -327.5303 1529
1358.9622 -326.67346 1525
1359.2629 -325.60242 1520
1359.5322 -324.53134 1515
1360.6707 -323.67447 1511
1359.9771 -322.38922 1505
1360.1525 -321.31818 1500
1359.3867 -320.03287 1494
1359.4965 -318.96182 1489
1359.575 -317.89075 1484
1360.5414 -317.03394 1480
1360.5604 -315.96286 1475
1360.5482 -314.89182 1470
1360.5045 -313.82074 1465
1360.4297 -312.74966 1460
1361.2585 -311.89282 1456
1360.186 -310.60754 1450
1360.0175 -309.53647 1445
1359.8174 -308.46542 1440
1359.5859 -307.39435 1435
1359.3235 -306.3233 1430
1359.0295 -305.25223 1425
1358.7043 -304.18118 1420
1358.3478 -303.11011 1415
1357.96 -302.03906 1410
1358.5072 -301.18222 1406
1359.0293 -300.32538 1402
1359.5264 -299.46851 1398
1359.0228 -298.39746 1393
1358.488 -297.32639 1388
1357.9219 -296.25534 1383
1358.3094 -295.39847 1379
1358.672 -294.54163 1375
1358.0183 -293.47058 1370
1358.3276 -292.61374 1366
1357.6144 -291.54266 1361
1350.2341 -330.21902 1559
1349.8972 -328.94815 1553
1351.2672 -328.10089 1549
1353.4878 -327.46545 1546
1354.8109 -326.61816 1542
1356.1091 -325.77094 1538
1357.3822 -324.92368 1534
1358.6304 -324.07645 1530
1358.9622 -323.01736 1525
1360.1571 -322.17007 1521
1360.4296 -321.11102 1516
1360.6707 -320.05194 1511
1359.9771 -318.78107 1505
1360.1525 -317.72198 1500
1360.2966 -316.66293 1495
1359.4965 -315.392 1489
1359.575 -314.33295 1484
1360.5414 -313.48569 1480
1360.5604 -312.42661 1475
1360.5482 -311.36752 1470
1360.5045 -310.30847 1465
1360.4297 -309.24939 1460
1360.3236 -308.19031 1455
1360.186 -307.13126 1450
1360.0175 -306.07217 1445
1358.873 -304.80127 1439
1359.5859 -303.95401 1435
1359.3235 -302.89496 1430
1359.0295 -301.83588 1425
1358.7043 -300.77679 1420
1358.3478 -299.71774 1415
1357.96 -298.65866 1410
1358.5072 -297.8114 1406
1359.0293 -296.96414 1402
1359.5264 -296.11688 1398
1359.0228 -295.0578 1393
1359.4668 -294.21054 1389
1357.9219 -292.93967 1383
1358.3094 -292.09241 1379
1357.6838 -291.03333 1374
1358.0183 -290.18607 1370
1358.3276 -289.33881 1366
1357.6144 -288.27975 1361
1351.1002 -326.69086 1560
1351.6356 -325.64377 1555
1353.012 -324.80609 1551
1354.3633 -323.96838 1547
1356.5681 -323.34015 1544
1356.9908 -322.29306 1539
1358.2671 -321.45541 1535
1358.6304 -320.40833 1530
1359.8533 -319.57065 1526
1360.1571 -318.52356 1521
1360.4296 -317.47647 1516
1360.6707 -316.42938 1511
1360.8806 -315.38229 1506
1360.1525 -314.12579 1500
1360.2966 -313.0787 1495
1360.4095 -312.03162 1490
1360.4911 -310.98453 1485
1360.5414 -309.93747 1480
1361.4828 -309.09979 1476
1360.5482 -307.84329 1470
1360.5045 -306.7962 1465
1360.4297 -305.74911 1460
1361.2585 -304.91144 1456
1360.186 -303.65494 1450
1360.0175 -302.60785 1445
1358.873 -301.35135 1439
1358.6385 -300.30426 1434
1359.3235 -299.46658 1430
1359.0295 -298.41953 1425
1358.7043 -297.37244 1420
1358.3478 -296.32535 1415
1357.96 -295.27826 1410
1358.5072 -294.44058 1406
1358.0599 -293.39349 1401
1358.554 -292.55585 1397
1359.0228 -291.71814 1393
1359.4668 -290.88049 1389
1358.9037 -289.8334 1384
1358.3094 -288.78632 1379
1357.6838 -287.73923 1374
1358.0183 -286.90158 1370
1357.3333 -285.85449 1365
1357.6144 -285.01682 1361
1351.1002 -322.95084 1560
1352.5048 -322.12274 1556
1353.012 -321.08765 1551
1355.2388 -320.46658 1548
1356.5681 -319.63849 1544
1357.8726 -318.81042 1540
1358.2671 -317.77533 1535
1358.6304 -316.74023 1530
1358.9622 -315.70514 1525
1360.1571 -314.87704 1521
1360.4296 -313.84195 1516
1360.6707 -312.80685 1511
1359.9771 -311.56473 1505
1360.1525 -310.52963 1500
1360.2966 -309.49454 1495
1360.4095 -308.45944 1490
1360.4911 -307.42432 1485
1361.4607 -306.59625 1481
1361.4828 -305.56116 1476
1361.4738 -304.52606 1471
1360.5045 -303.28394 1465
1361.3615 -302.45587 1461
1361.2585 -301.42078 1456
1361.1241 -300.38565 1451
1360.0175 -299.14355 1445
1358.873 -297.90143 1439
1358.6385 -296.86633 1434
1358.3728 -295.83121 1429
1359.0295 -295.00314 1425
1358.7043 -293.96805 1420
1358.3478 -292.93295 1415
1358.9231 -292.10486 1411
1358.5072 -291.06976 1406
1358.0599 -290.03467 1401
1358.554 -289.2066 1397
1359.0228 -288.37851 1393
1359.4668 -287.55045 1389
1358.9037 -286.51532 1384
1359.2944 -285.68726 1380
1357.6838 -284.44513 1374
1358.0183 -283.61707 1370
1357.3333 -282.58197 1365
1356.6168 -281.54688 1360
1353.1226 -320.84778 1568
1352.8325 -319.62003 1562
1354.2432 -318.80154 1558
1354.7567 -317.77844 1553
1356.1143 -316.95993 1549
1357.4469 -316.14148 1545
1357.8726 -315.11838 1540
1358.2671 -314.09525 1535
1359.5183 -313.27673 1531
1359.8533 -312.25363 1526
1359.2629 -311.02591 1520
1359.5322 -310.00278 1515
1360.6707 -309.1843 1511
1360.8806 -308.16119 1506
1361.0592 -307.13809 1501
1361.2065 -306.11496 1496
1360.4095 -304.88724 1490
1361.4072 -304.06876 1486
1362.38 -303.25024 1482
1362.4052 -302.22714 1477
1361.4738 -300.99942 1471
1361.4332 -299.97629 1466
1361.3615 -298.95319 1461
1361.2585 -297.93008 1456
1361.1241 -296.90695 1451
1360.0175 -295.67923 1445
1359.8174 -294.65613 1440
1358.6385 -293.42838 1434
1358.3728 -292.40527 1429
1358.0758 -291.38214 1424
1358.7043 -290.56366 1420
1358.3478 -289.54056 1415
1358.9231 -288.72208 1411
1358.5072 -287.69897 1406
1359.0293 -286.88046 1402
1358.554 -285.85736 1397
1358.0472 -284.83426 1392
1358.488 -284.01575 1388
1357.9219 -282.99265 1383
1358.3094 -282.17416 1379
1358.672 -281.35565 1375
1358.0183 -280.33255 1370
1357.3333 -279.30945 1365
1356.6168 -278.28635 1360
1356.8145 -319.11084 1578
1354.8485 -317.49304 1570
1354.5647 -316.27966 1564
1355.1124 -315.26855 1559
1356.5013 -314.45966 1555
1356.9897 -313.44852 1550
1357.4469 -312.43741 1545
1358.7543 -311.62851 1541
1360.0369 -310.81961 1537
1360.4062 -309.80847 1532
1360.7444 -308.79736 1527
1361.0514 -307.78622 1522
1360.4296 -306.57288 1516
1360.6707 -305.56177 1511
1360.8806 -304.55063 1506
1361.0592 -303.53952 1501
1361.2065 -302.52838 1496
1361.3225 -301.51727 1491
1361.4072 -300.50613 1486
1362.38 -299.69724 1482
1363.3278 -298.88834 1478
1362.3993 -297.67499 1472
1361.4332 -296.46164 1466
1361.3615 -295.4505 1461
1361.2585 -294.43939 1456
1361.1241 -293.42825 1451
1360.9586 -292.41714 1446
1359.8174 -291.2038 1440
1358.6385 -289.99045 1434
1358.3728 -288.97931 1429
1358.0758 -287.9682 1424
1358.7043 -287.1593 1420
1358.3478 -286.14816 1415
1357.96 -285.13705 1410
1358.5072 -284.32816 1406
1359.0293 -283.51926 1402
1358.554 -282.50812 1397
1358.0472 -281.49701 1392
1357.5093 -280.48587 1387
1357.9219 -279.67697 1383
1358.3094 -278.86807 1379
1357.6838 -277.85693 1374
1358.0183 -277.04803 1370
1357.3333 -276.03693 1365
1356.6168 -275.02579 1360
1360.2538 -316.12695 1582
1357.4374 -314.32852 1573
1358.0289 -313.32938 1568
1357.7201 -312.1304 1562
1358.2461 -311.13129 1557
1359.6162 -310.33197 1553
1360.0826 -309.33282 1548
1360.5178 -308.33368 1543
1361.8065 -307.53436 1539
1362.1823 -306.53522 1534
1362.5267 -305.5361 1529
1361.9457 -304.33716 1523
1362.2244 -303.33801 1518
1362.4718 -302.33887 1513
1361.7843 -301.13989 1507
1361.9659 -300.14078 1502
1362.1165 -299.14163 1497
1363.1486 -298.34232 1493
1363.2396 -297.3432 1488
1363.2992 -296.34406 1483
1364.2501 -295.54474 1479
1363.3248 -294.34576 1473
1363.2905 -293.34665 1468
1363.2251 -292.3475 1463
1362.1934 -291.14853 1457
1361.1241 -289.94955 1451
1360.9586 -288.95044 1446
1359.8174 -287.75146 1440
1358.6385 -286.55249 1434
1358.3728 -285.55334 1429
1358.0758 -284.55423 1424
1357.7474 -283.55508 1419
1358.3478 -282.75577 1415
1357.96 -281.75665 1410
1357.541 -280.75751 1405
1358.0599 -279.95819 1401
1357.5815 -278.95905 1396
1358.0472 -278.15976 1392
1357.5093 -277.16061 1387
1357.9219 -276.3613 1383
1357.3245 -275.36215 1378
1357.6838 -274.56284 1374
1357.027 -273.56372 1369
1358.3276 -272.96423 1366
1357.6144 -271.96509 1361
1361.9734 -312.72903 1584
1359.1632 -310.95218 1575
1358.895 -309.76758 1569
1359.4586 -308.78046 1564
1359.1184 -307.59589 1558
1359.6162 -306.60873 1553
1360.9612 -305.819 1549
1361.3995 -304.83185 1544
1361.8065 -303.8447 1539
1362.1823 -302.85754 1534
1362.5267 -301.87039 1529
1361.9457 -300.68582 1523
1362.2244 -299.69867 1518
1361.5713 -298.5141 1512
1361.7843 -297.52695 1507
1361.9659 -296.53979 1502
1363.0264 -295.75009 1498
1363.1486 -294.76294 1493
1363.2396 -293.77579 1488
1364.2185 -292.98605 1484
1364.2501 -291.9989 1479
1364.2502 -291.01175 1474
1363.2905 -289.82718 1468
1363.2251 -288.84003 1463
1362.1934 -287.65546 1457
1361.1241 -286.47086 1451
1360.9586 -285.4837 1446
1359.8174 -284.29913 1440
1358.6385 -283.11456 1434
1358.3728 -282.12741 1429
1358.0758 -281.14026 1424
1357.7474 -280.15311 1419
1357.3879 -279.16595 1414
1357.96 -278.37625 1410
1357.541 -277.3891 1405
1358.0599 -276.59937 1401
1357.5815 -275.61221 1396
1358.0472 -274.82251 1392
1358.488 -274.03278 1388
1358.9037 -273.24304 1384
1358.3094 -272.25589 1379
1357.6838 -271.26877 1374
1358.0183 -270.47903 1370
1358.3276 -269.68933 1366
1358.6119 -268.8996 1362
1363.0138 -310.29672 1591
1361.1135 -308.73645 1583
1360.0262 -307.37122 1576
1360.6273 -306.39606 1571
1359.4586 -305.03082 1564
1359.9907 -304.05566 1559
1360.4917 -303.08051 1554
1360.9612 -302.10535 1549
1362.2814 -301.32523 1545
1362.6914 -300.35007 1540
1362.1823 -299.17987 1534
1362.5267 -298.20468 1529
1361.9457 -297.03452 1523
1362.2244 -296.05936 1518
1361.5713 -294.88916 1512
1362.6879 -294.10904 1508
1362.8728 -293.13388 1503
1363.9363 -292.35373 1499
1364.0615 -291.37857 1494
1364.1558 -290.40338 1489
1364.2185 -289.42822 1484
1365.1725 -288.6481 1480
1364.2502 -287.47791 1474
1364.2192 -286.50275 1469
1363.2251 -285.33258 1463
1362.1934 -284.16235 1457
1361.1241 -282.99216 1451
1360.0175 -281.82196 1445
1359.8174 -280.8468 1440
1359.5859 -279.87164 1435
1359.3235 -278.89648 1430
1358.0758 -277.72629 1424
1357.7474 -276.75113 1419
1358.3478 -275.97101 1415
1358.9231 -275.19086 1411
1359.4734 -274.41074 1407
1359.0293 -273.43558 1402
1358.554 -272.46042 1397
1359.0228 -271.68027 1393
1358.488 -270.70511 1388
1358.9037 -269.92499 1384
1359.2944 -269.14487 1380
1358.672 -268.16971 1375
1359.0095 -267.38956 1371
1358.3276 -266.4144 1366
1359.6095 -265.82928 1363
1362.1571 -306.28973 1590
1361.1135 -304.94131 1583
1360.0262 -303.59286 1576
1360.6273 -302.62967 1571
1360.3278 -301.47385 1565
1359.9907 -300.31805 1559
1361.3671 -299.54752 1555
1360.9612 -298.39169 1549
1362.2814 -297.62115 1545
1362.6914 -296.65799 1540
1363.0702 -295.69482 1535
1362.5267 -294.539 1529
1362.8398 -293.57581 1524
1362.2244 -292.42001 1518
1362.4718 -291.45685 1513
1362.6879 -290.49368 1508
1363.7795 -289.72311 1504
1363.9363 -288.75995 1499
1364.0615 -287.79678 1494
1364.1558 -286.83359 1489
1365.1378 -286.06305 1485
1365.1725 -285.09988 1480
1364.2502 -283.94406 1474
1364.2192 -282.9809 1469
1363.2251 -281.8251 1463
1362.1934 -280.66928 1457
1361.1241 -279.51346 1451
1360.9586 -278.55029 1446
1359.8174 -277.39447 1440
1359.5859 -276.4313 1435
1359.3235 -275.46814 1430
1359.0295 -274.50494 1425
1358.7043 -273.54178 1420
1358.3478 -272.57861 1415
1358.9231 -271.80807 1411
1359.4734 -271.03754 1407
1359.9988 -270.26697 1403
1359.5264 -269.3038 1398
1359.0228 -268.34064 1393
1358.488 -267.37744 1388
1358.9037 -266.6069 1384
1359.2944 -265.83636 1380
1359.6602 -265.06586 1376
1359.0095 -264.10266 1371
1359.3219 -263.33212 1367
1359.6095 -262.56158 1363
1363.2623 -304.9509 1603
1361.4497 -303.42899 1595
1361.3004 -302.28754 1589
1361.1135 -301.14615 1583
1360.8892 -300.0047 1577
1360.6273 -298.86328 1571
1361.197 -297.91211 1566
1361.7355 -296.96091 1561
1362.2426 -296.0097 1556
1362.7184 -295.05853 1551
1362.2814 -293.91711 1545
1362.6914 -292.96591 1540
1363.0702 -292.01474 1535
1363.4178 -291.06354 1530
1362.8398 -289.92212 1524
1363.1217 -288.97092 1519
1363.3723 -288.01974 1514
1363.5916 -287.06854 1509
1363.7795 -286.11737 1504
1364.8461 -285.35641 1500
1364.0615 -284.21497 1494
1365.0719 -283.45404 1490
1365.1378 -282.50284 1485
1364.2501 -281.36142 1479
1363.3248 -280.22 1473
1363.2905 -279.26883 1468
1362.2933 -278.12738 1462
1361.2585 -276.98596 1456
1361.1241 -276.03476 1451
1360.9586 -275.08359 1446
1359.8174 -273.94214 1440
1359.5859 -272.99097 1435
1360.274 -272.23001 1431
1359.9832 -271.27884 1426
1359.6611 -270.32764 1421
1359.3077 -269.37646 1416
1358.9231 -268.42526 1411
1359.4734 -267.66431 1407
1359.9988 -266.90335 1403
1359.5264 -265.95218 1398
1359.0228 -265.00098 1393
1359.4668 -264.24002 1389
1358.9037 -263.28885 1384
1359.2944 -262.52789 1380
1359.6602 -261.76694 1376
1359.0095 -260.81577 1371
1360.3163 -260.24503 1368
1360.6069 -259.4841 1364
1362.4119 -300.91995 1602
1361.4497 -299.60504 1595
1361.3004 -298.478 1589
1361.1135 -297.35098 1583
1361.7522 -296.41177 1578
1361.4934 -295.28473 1572
1362.0662 -294.34552 1567
1362.6078 -293.40634 1562
1363.118 -292.46713 1557
1362.7184 -291.34009 1551
1363.1631 -290.40088 1546
1362.6914 -289.27383 1540
1363.0702 -288.33466 1535
1363.4178 -287.39545 1530
1362.8398 -286.2684 1524
1363.1217 -285.32919 1519
1363.3723 -284.38998 1514
1363.5916 -283.45081 1509
1363.7795 -282.5116 1504
1364.8461 -281.76022 1500
1364.0615 -280.63318 1494
1364.1558 -279.694 1489
1365.1378 -278.94263 1485
1364.2501 -277.81558 1479
1363.3248 -276.68857 1473
1362.3619 -275.56152 1467
1362.2933 -274.62231 1462
1361.2585 -273.49527 1456
1361.1241 -272.55606 1451
1360.9586 -271.61688 1446
1360.7616 -270.67767 1441
1360.5334 -269.73846 1436
1360.274 -268.79926 1431
1359.9832 -267.86008 1426
1359.6611 -266.92087 1421
1359.3077 -265.98166 1416
1359.8862 -265.23032 1412
1359.4734 -264.29111 1407
1359.9988 -263.53973 1403
1359.5264 -262.60052 1398
1359.9984 -261.84918 1394
1359.4668 -260.90997 1389
1358.9037 -259.97076 1384
1359.2944 -259.21942 1380
1359.6602 -258.46805 1376
1360.0007 -257.71671 1372
1361.3107 -257.15317 1369
1360.6069 -256.21396 1364
1359.8606 -296.52289 1599
1360.5961 -295.59567 1594
1360.4437 -294.48303 1588
1361.1135 -293.55582 1583
1361.7522 -292.6286 1578
1362.3595 -291.70139 1573
1362.9354 -290.77417 1568
1362.6078 -289.66153 1562
1363.118 -288.73431 1557
1363.597 -287.8071 1552
1363.1631 -286.69443 1546
1363.5763 -285.76721 1541
1363.0702 -284.65457 1535
1363.4178 -283.72736 1530
1363.7341 -282.80014 1525
1363.1217 -281.68747 1519
1363.3723 -280.76025 1514
1363.5916 -279.83304 1509
1363.7795 -278.90582 1504
1364.8461 -278.16406 1500
1364.9747 -277.23685 1495
1365.0719 -276.30963 1490
1365.1378 -275.38242 1485
1365.1725 -274.4552 1480
1363.3248 -273.15714 1473
1363.2905 -272.22992 1468
1363.2251 -271.3027 1463
1362.1934 -270.19003 1457
1362.0621 -269.26282 1452
1361.8998 -268.3356 1447
1361.7059 -267.40839 1442
1361.481 -266.48117 1437
1360.274 -265.36853 1431
1360.9369 -264.62674 1427
1360.618 -263.69955 1422
1360.2677 -262.77234 1417
1360.8494 -262.03055 1413
1360.4397 -261.10333 1408
1359.9988 -260.17612 1403
1360.4989 -259.43436 1399
1359.9984 -258.50714 1394
1360.4456 -257.76535 1390
1359.8856 -256.83817 1385
1360.2794 -256.09637 1381
1360.6482 -255.35461 1377
1360.9921 -254.61284 1373
1361.3107 -253.87106 1369
1361.6045 -253.1293 1365
1358.2465 -293.42157 1603
1359.0101 -292.50635 1598
1359.7426 -291.59109 1593
1360.4437 -290.67587 1588
1361.1135 -289.76065 1583
1361.7522 -288.84543 1578
1362.3595 -287.93021 1573
1363.8046 -287.198 1569
1363.4801 -286.09976 1563
1363.118 -285.00146 1557
1363.597 -284.08624 1552
1364.0448 -283.17102 1547
1364.4612 -282.2558 1542
1363.9583 -281.15753 1536
1364.309 -280.24231 1531
1364.6283 -279.32706 1526
1364.9165 -278.41183 1521
1364.2728 -277.31357 1515
1363.5916 -276.2153 1509
1364.6863 -275.48312 1505
1364.8461 -274.5679 1500
1364.9747 -273.65265 1495
1365.0719 -272.73743 1490
1365.1378 -271.8222 1485
1365.1725 -270.90698 1480
1364.2502 -269.80872 1474
1363.2905 -268.71045 1468
1363.2251 -267.79523 1463
1363.1283 -266.88 1458
1362.0621 -265.78174 1452
1361.8998 -264.86649 1447
1361.7059 -263.95126 1442
1361.481 -263.03604 1437
1361.2246 -262.12082 1432
1361.8906 -261.38864 1428
1361.5748 -260.47342 1423
1362.1876 -259.74121 1419
1361.8124 -258.82599 1414
1361.4059 -257.91077 1409
1360.968 -256.99554 1404
1360.4989 -256.08032 1399
1360.9741 -255.34814 1395
1361.4242 -254.61597 1391
1361.8494 -253.88379 1387
1362.2494 -253.15158 1383
1362.6245 -252.4194 1379
1362.9745 -251.68723 1375
1363.2996 -250.95505 1371
1363.5995 -250.22289 1367
1359.984 -291.02362 1611
1356.5518 -289.21713 1601
1358.1597 -288.49457 1597
1359.7426 -287.77197 1593
1360.4437 -286.86874 1588
1361.1135 -285.96548 1583
1361.7522 -285.06226 1578
1363.2255 -284.33966 1574
1363.8046 -283.4364 1569
1363.4801 -282.35254 1563
1363.9935 -281.44931 1558
1364.4757 -280.54605 1553
1364.9265 -279.64282 1548
1364.4612 -278.55893 1542
1364.8463 -277.6557 1537
1365.2001 -276.75244 1532
1365.5226 -275.84921 1527
1364.9165 -274.76532 1521
1364.2728 -273.68143 1515
1363.5916 -272.59753 1509
1364.6863 -271.87494 1505
1364.8461 -270.97171 1500
1364.9747 -270.06848 1495
1365.0719 -269.16522 1490
1365.1378 -268.26199 1485
1364.2501 -267.1781 1479
1364.2502 -266.27487 1474
1363.2905 -265.19101 1468
1363.2251 -264.28775 1463
1362.1934 -263.20386 1457
1362.0621 -262.30063 1452
1361.8998 -261.3974 1447
1361.7059 -260.49414 1442
1361.481 -259.59091 1437
1361.2246 -258.68768 1432
1361.8906 -257.96509 1428
1362.5316 -257.24249 1424
1362.1876 -256.33923 1419
1362.7755 -255.61665 1415
1362.3721 -254.71341 1410
1361.9374 -253.81018 1405
1361.4713 -252.90694 1400
1360.9741 -252.00369 1395
1361.4242 -251.28111 1391
1362.8313 -250.73915 1388
1362.2494 -249.83592 1383
1362.6245 -249.11333 1379
1362.9745 -248.39075 1375
1363.2996 -247.66815 1371
1364.5969 -247.12619 1368
1354.8571 -285.02231 1599
1357.3092 -284.48758 1596
1358.8889 -283.77457 1592
1359.587 -282.88333 1587
1361.1135 -282.17032 1583
1362.6151 -281.45731 1579
1363.2255 -280.56607 1574
1363.8046 -279.6748 1569
1363.4801 -278.60532 1563
1363.9935 -277.71408 1558
1364.4757 -276.82281 1553
1364.0448 -275.75333 1547
1364.4612 -274.86206 1542
1363.9583 -273.79257 1536
1364.309 -272.90131 1531
1364.6283 -272.01004 1526
1364.0192 -270.94055 1520
1364.2728 -270.04929 1515
1362.6879 -268.80154 1508
1363.7795 -268.08853 1504
1364.8461 -267.37555 1500
1364.9747 -266.48428 1495
1364.1558 -265.41479 1489
1364.2185 -264.52353 1484
1364.2501 -263.63229 1479
1364.2502 -262.74103 1474
1363.2905 -261.67154 1468
1363.2251 -260.7803 1463
1362.1934 -259.71078 1457
1363.0004 -258.99777 1453
1361.8998 -257.92828 1447
1361.7059 -257.03702 1442
1361.481 -256.14578 1437
1362.1752 -255.43279 1433
1361.8906 -254.54152 1428
1362.5316 -253.82851 1424
1363.1477 -253.11551 1420
1362.7755 -252.22426 1415
1362.3721 -251.33301 1410
1362.9067 -250.62001 1406
1362.4438 -249.72876 1401
1361.9497 -248.83751 1396
1362.403 -248.12451 1392
1362.8313 -247.4115 1388
1363.2344 -246.6985 1384
1362.6245 -245.80725 1379
1362.9745 -245.09425 1375
1363.2996 -244.38126 1371
1364.5969 -243.84648 1368
1354.0098 -281.01297 1598
1356.4589 -280.48538 1595
1358.0354 -279.78198 1591
1359.587 -279.07858 1587
1361.1135 -278.37518 1583
1362.6151 -277.67175 1579
1363.2255 -276.79248 1574
1363.8046 -275.91321 1569
1363.4801 -274.85812 1563
1363.118 -273.80298 1557
1363.597 -272.92374 1552
1364.0448 -272.04446 1547
1364.4612 -271.16519 1542
1363.9583 -270.11008 1536
1364.309 -269.2308 1531
1364.6283 -268.35153 1526
1364.0192 -267.29642 1520
1363.3723 -266.2413 1514
1363.5916 -265.36203 1509
1363.7795 -264.48279 1504
1364.8461 -263.77936 1500
1364.9747 -262.90012 1495
1365.0719 -262.02084 1490
1364.2185 -260.96573 1484
1364.2501 -260.08646 1479
1364.2502 -259.20718 1474
1363.2905 -258.1521 1468
1363.2251 -257.27283 1463
1362.1934 -256.21771 1457
1363.0004 -255.5143 1453
1362.8409 -254.63503 1448
1361.7059 -253.57991 1442
1362.4283 -252.8765 1438
1362.1752 -251.99724 1433
1362.8444 -251.29381 1429
1362.5316 -250.41454 1424
1363.1477 -249.71114 1420
1362.7755 -248.83186 1415
1363.3383 -248.12846 1411
1362.9067 -247.24919 1406
1363.4163 -246.54579 1402
1362.9253 -245.66652 1397
1363.3817 -244.9631 1393
1363.8131 -244.25969 1389
1363.2344 -243.38043 1384
1362.6245 -242.50116 1379
1362.9745 -241.79776 1375
1363.2996 -241.09435 1371
1364.5969 -240.56677 1368
1353.2607 -279.08984 1609
1354.0746 -278.22256 1604
1354.0098 -277.18182 1598
1356.4589 -276.66147 1595
1358.0354 -275.96765 1591
1358.7303 -275.10037 1586
1360.2538 -274.40656 1582
1361.7522 -273.71274 1578
1363.2255 -273.01889 1574
1363.8046 -272.15161 1569
1362.6078 -270.93744 1562
1363.118 -270.07016 1557
1363.597 -269.20288 1552
1364.0448 -268.3356 1547
1363.5763 -267.29486 1541
1363.9583 -266.42758 1536
1364.309 -265.5603 1531
1364.6283 -264.69302 1526
1364.9165 -263.82578 1521
1365.1733 -262.9585 1516
1365.3988 -262.09122 1511
1364.6863 -261.05048 1505
1365.756 -260.35666 1501
1365.8877 -259.48938 1496
1365.0719 -258.44864 1490
1365.1378 -257.58136 1485
1364.2501 -256.54062 1479
1364.2502 -255.67336 1474
1363.2905 -254.63263 1468
1362.2933 -253.59189 1462
1362.1934 -252.72461 1457
1363.0004 -252.03079 1453
1362.8409 -251.16353 1448
1362.6503 -250.29625 1443
1362.4283 -249.42897 1438
1362.1752 -248.56169 1433
1362.8444 -247.86786 1429
1363.4884 -247.17404 1425
1363.1477 -246.30676 1420
1363.7386 -245.61295 1416
1363.3383 -244.74567 1411
1363.8761 -244.05185 1407
1363.4163 -243.18457 1402
1363.9009 -242.49072 1398
1363.3817 -241.62346 1393
1362.8313 -240.75618 1388
1363.2344 -240.06236 1384
1362.6245 -239.19508 1379
1362.9745 -238.50127 1375
1363.2996 -237.80745 1371
1363.5995 -237.11363 1367
1354.0916 -276.42975 1616
1353.2607 -275.23233 1609
1354.0746 -274.37704 1604
1354.8571 -273.52176 1599
1356.4589 -272.83752 1595
1358.8889 -272.32437 1592
1359.587 -271.46909 1587
1361.1135 -270.78485 1583
1362.6151 -270.10059 1579
1364.0916 -269.41638 1575
1364.674 -268.56107 1570
1363.4801 -267.36368 1563
1363.118 -266.33734 1557
1364.4757 -265.65311 1553
1364.0448 -264.62674 1547
1364.4612 -263.77145 1542
1364.8463 -262.91617 1537
1365.2001 -262.06088 1532
1365.5226 -261.2056 1527
1365.8138 -260.35031 1522
1365.1733 -259.32394 1516
1365.3988 -258.46866 1511
1365.5931 -257.61337 1506
1365.756 -256.75809 1501
1365.8877 -255.90279 1496
1365.0719 -254.87643 1490
1364.2185 -253.85008 1484
1363.3278 -252.82376 1478
1363.3248 -251.96846 1473
1362.3619 -250.94211 1467
1361.3615 -249.91576 1461
1361.2585 -249.06047 1456
1362.0621 -248.37624 1452
1362.8409 -247.69202 1448
1362.6503 -246.83673 1443
1362.4283 -245.98143 1438
1362.1752 -245.12614 1433
1362.8444 -244.44189 1429
1363.4884 -243.75768 1425
1363.1477 -242.90237 1420
1363.7386 -242.21815 1416
1363.3383 -241.36285 1411
1362.9067 -240.50757 1406
1363.4163 -239.82335 1402
1362.9253 -238.96805 1397
1363.3817 -238.2838 1393
1362.8313 -237.42851 1388
1363.2344 -236.74429 1384
1362.6245 -235.88899 1379
1362.9745 -235.20477 1375
1363.2996 -234.52054 1371
1362.6019 -233.66525 1366
1355.7133 -273.90475 1624
1354.9294 -272.72415 1617
1354.943 -271.71216 1611
1354.9188 -270.7002 1605
1356.5518 -270.02557 1601
1358.1597 -269.35092 1597
1359.7426 -268.6763 1593
1361.3004 -268.00162 1589
1361.9734 -267.15833 1584
1363.4781 -266.4837 1580
1364.9576 -265.80905 1576
1365.5431 -264.96576 1571
1365.2249 -263.9538 1565
1364.869 -262.9418 1559
1364.4757 -261.92987 1553
1364.9265 -261.08655 1548
1365.3459 -260.24326 1543
1364.8463 -259.23129 1537
1364.309 -258.21933 1531
1364.6283 -257.37604 1526
1364.9165 -256.53271 1521
1364.2728 -255.52075 1515
1363.5916 -254.50879 1509
1363.7795 -253.66548 1504
1363.9363 -252.82217 1499
1364.0615 -251.97888 1494
1364.1558 -251.13557 1489
1363.2992 -250.12363 1483
1362.4052 -249.11166 1477
1362.3993 -248.26836 1472
1361.4332 -247.25639 1466
1360.4297 -246.24443 1460
1360.3236 -245.40112 1455
1361.1241 -244.72649 1451
1361.8998 -244.05185 1447
1361.7059 -243.20854 1442
1361.481 -242.36523 1437
1361.2246 -241.52194 1432
1361.8906 -240.84729 1428
1361.5748 -240.004 1423
1362.1876 -239.32933 1419
1362.7755 -238.65469 1415
1362.3721 -237.8114 1410
1361.9374 -236.96809 1405
1361.4713 -236.12479 1400
1360.9741 -235.28149 1395
1361.4242 -234.60684 1391
1361.8494 -233.93221 1387
1362.2494 -233.25755 1383
1362.6245 -232.58292 1379
1362.9745 -231.90828 1375
1363.2996 -231.23364 1371
1363.5995 -230.55901 1367
1357.3829 -270.34381 1626
1355.7673 -269.01373 1618
1355.7841 -268.01614 1612
1355.7629 -267.01855 1606
1357.399 -266.35352 1602
1358.1597 -265.52219 1597
1359.7426 -264.85715 1593
1361.3004 -264.19208 1589
1362.8333 -263.52704 1585
1363.4781 -262.69571 1580
1364.9576 -262.03067 1576
1364.674 -261.03308 1570
1364.3525 -260.03549 1564
1363.9935 -259.03793 1558
1364.4757 -258.20663 1553
1364.0448 -257.20905 1547
1364.4612 -256.37772 1542
1363.9583 -255.38014 1536
1364.309 -254.54883 1531
1363.7341 -253.55125 1525
1364.0192 -252.71994 1520
1363.3723 -251.72235 1514
1362.6879 -250.72479 1508
1363.7795 -250.05972 1504
1363.9363 -249.22841 1499
1363.1486 -248.23083 1493
1363.2396 -247.39952 1488
1362.38 -246.40195 1482
1362.4052 -245.57063 1477
1362.3993 -244.73932 1472
1361.4332 -243.74173 1466
1361.3615 -242.91042 1461
1361.2585 -242.0791 1456
1361.1241 -241.24779 1451
1361.8998 -240.58273 1447
1361.7059 -239.75142 1442
1361.481 -238.9201 1437
1361.2246 -238.08879 1432
1360.9369 -237.25748 1427
1360.618 -236.42616 1422
1361.2277 -235.76111 1418
1361.8124 -235.09604 1414
1362.3721 -234.431 1410
1361.9374 -233.59967 1405
1361.4713 -232.76836 1400
1360.9741 -231.93704 1395
1361.4242 -231.272 1391
1361.8494 -230.60695 1387
1362.2494 -229.94188 1383
1362.6245 -229.27682 1379
1362.9745 -228.61179 1375
1363.2996 -227.94673 1371
1363.5995 -227.28169 1367
1358.2177 -266.60944 1627
1356.6053 -265.29849 1619
1357.4661 -264.47919 1614
1357.4513 -263.496 1608
1358.2465 -262.67667 1603
1359.8606 -262.02118 1599
1360.5961 -261.20187 1594
1361.3004 -260.38254 1589
1361.9734 -259.5632 1584
1362.6151 -258.74387 1579
1363.2255 -257.92456 1574
1362.9354 -256.94138 1568
1363.4801 -256.12204 1563
1363.118 -255.13885 1557
1362.7184 -254.15565 1551
1363.1631 -253.33632 1546
1363.5763 -252.517 1541
1363.0702 -251.5338 1535
1363.4178 -250.71446 1530
1363.7341 -249.89514 1525
1364.0192 -249.07581 1520
1363.3723 -248.09261 1514
1362.6879 -247.10944 1508
1362.8728 -246.2901 1503
1363.9363 -245.63463 1499
1363.1486 -244.65144 1493
1363.2396 -243.83212 1488
1362.38 -242.84892 1482
1362.4052 -242.0296 1477
1362.3993 -241.21027 1472
1361.4332 -240.22707 1466
1361.3615 -239.40775 1461
1360.3236 -238.42455 1455
1360.186 -237.60521 1450
1360.9586 -236.94975 1446
1360.7616 -236.13043 1441
1360.5334 -235.3111 1436
1360.274 -234.49178 1431
1360.9369 -233.83632 1427
1360.618 -233.01698 1422
1361.2277 -232.36153 1418
1361.8124 -231.70605 1414
1362.3721 -231.05058 1410
1361.9374 -230.23126 1405
1361.4713 -229.41193 1400
1361.9497 -228.75647 1396
1362.403 -228.10101 1392
1362.8313 -227.44554 1388
1362.2494 -226.62621 1383
1362.6245 -225.97075 1379
1362.9745 -225.31529 1375
1363.2996 -224.65984 1371
1363.5995 -224.00438 1367
1358.2177 -262.7088 1627
1357.4434 -261.57852 1620
1357.4661 -260.60971 1614
1358.2955 -259.80237 1609
1359.0938 -258.99503 1604
1359.8606 -258.18768 1599
1361.4497 -257.54181 1595
1362.1571 -256.73447 1590
1361.9734 -255.76566 1584
1362.6151 -254.95831 1579
1363.2255 -254.15097 1574
1362.9354 -253.18217 1568
1363.4801 -252.37483 1563
1363.118 -251.40602 1557
1362.7184 -250.43721 1551
1363.1631 -249.62987 1546
1363.5763 -248.82253 1541
1363.0702 -247.85371 1535
1363.4178 -247.04637 1530
1363.7341 -246.23903 1525
1363.1217 -245.27022 1519
1363.3723 -244.46288 1514
1362.6879 -243.49408 1508
1362.8728 -242.68674 1503
1363.9363 -242.04085 1499
1363.1486 -241.07205 1493
1362.3235 -240.10324 1487
1362.38 -239.2959 1482
1362.4052 -238.48856 1477
1362.3993 -237.68123 1472
1361.4332 -236.7124 1466
1361.3615 -235.90508 1461
1360.3236 -234.93625 1455
1360.186 -234.12891 1450
1360.0175 -233.32158 1445
1360.7616 -232.6757 1441
1360.5334 -231.86836 1436
1360.274 -231.06102 1431
1360.9369 -230.41515 1427
1361.5748 -229.76929 1423
1361.2277 -228.96194 1418
1361.8124 -228.31606 1414
1362.3721 -227.67018 1410
1362.9067 -227.02432 1406
1362.4438 -226.21698 1401
1362.9253 -225.57111 1397
1363.3817 -224.92522 1393
1362.8313 -224.11787 1388
1363.2344 -223.47202 1384
1363.6127 -222.82614 1380
1362.9745 -222.0188 1375
1362.3052 -221.21146 1370
1362.6019 -220.56558 1366
1358.1167 -259.76257 1633
1358.2177 -258.80814 1627
1357.4434 -257.69464 1620
1357.4661 -256.7402 1614
1358.2955 -255.94485 1609
1359.0938 -255.14951 1604
1360.7109 -254.51323 1600
1361.4497 -253.71786 1595
1362.1571 -252.92252 1590
1362.8333 -252.12717 1585
1362.6151 -251.17273 1579
1363.2255 -250.37738 1574
1362.9354 -249.42297 1568
1363.4801 -248.62762 1563
1363.118 -247.67319 1557
1362.7184 -246.71877 1551
1363.1631 -245.92342 1546
1363.5763 -245.12805 1541
1363.0702 -244.17363 1535
1362.5267 -243.21919 1529
1362.8398 -242.42384 1524
1363.1217 -241.62849 1519
1362.4718 -240.67409 1513
1362.6879 -239.87872 1508
1362.8728 -239.08337 1503
1363.0264 -238.28802 1498
1363.1486 -237.49266 1493
1361.4072 -236.37917 1486
1361.4607 -235.58382 1481
1361.4828 -234.78845 1476
1361.4738 -233.9931 1471
1361.4332 -233.19775 1466
1360.4297 -232.24332 1460
1361.2585 -231.60704 1456
1360.186 -230.65262 1450
1360.0175 -229.85725 1445
1360.7616 -229.22098 1441
1360.5334 -228.42563 1436
1360.274 -227.63026 1431
1360.9369 -226.99399 1427
1361.5748 -226.35771 1423
1362.1876 -225.72142 1419
1362.7755 -225.08513 1415
1363.3383 -224.44885 1411
1362.9067 -223.6535 1406
1363.4163 -223.01723 1402
1363.9009 -222.38092 1398
1364.3604 -221.74464 1394
1363.8131 -220.9493 1389
1363.2344 -220.15395 1384
1363.6127 -219.51765 1380
1362.9745 -218.72231 1375
1363.2996 -218.08603 1371
1362.6019 -217.29068 1366
1357.285 -255.69086 1632
1358.2177 -254.9075 1627
1357.4434 -253.81078 1620
1357.4661 -252.87073 1614
1358.2955 -252.08736 1609
1359.0938 -251.304 1604
1359.8606 -250.52063 1599
1361.4497 -249.89394 1595
1362.1571 -249.11058 1590
1362.8333 -248.32721 1585
1362.6151 -247.38716 1579
1363.2255 -246.60379 1574
1363.8046 -245.82043 1569
1363.4801 -244.8804 1563
1362.2426 -243.78369 1556
1362.7184 -243.00032 1551
1363.1631 -242.21695 1546
1363.5763 -241.43358 1541
1363.0702 -240.49355 1535
1362.5267 -239.5535 1529
1362.8398 -238.77013 1524
1363.1217 -237.98677 1519
1362.4718 -237.04674 1513
1362.6879 -236.26337 1508
1362.8728 -235.48001 1503
1363.0264 -234.69664 1498
1363.1486 -233.91327 1493
1362.3235 -232.97324 1487
1361.4607 -232.03319 1481
1361.4828 -231.24982 1476
1361.4738 -230.46646 1471
1361.4332 -229.68309 1466
1360.4297 -228.74304 1460
1360.3236 -227.95967 1455
1361.1241 -227.33299 1451
1360.0175 -226.39294 1445
1360.7616 -225.76625 1441
1360.5334 -224.98289 1436
1360.274 -224.19952 1431
1360.9369 -223.57283 1427
1362.5316 -223.1028 1424
1362.1876 -222.31943 1419
1362.7755 -221.69275 1415
1363.3383 -221.06606 1411
1362.9067 -220.28268 1406
1363.4163 -219.65601 1402
1363.9009 -219.0293 1398
1363.3817 -218.24593 1393
1363.8131 -217.61923 1389
1363.2344 -216.83588 1384
1363.6127 -216.20918 1380
1362.9745 -215.42581 1375
1363.2996 -214.79912 1371
1362.6019 -214.01576 1366
1354.6639 -252.24104 1635
1356.4534 -251.62395 1631
1357.3829 -250.85257 1626
1359.1191 -250.23546 1622
1358.3071 -249.15553 1615
1359.1396 -248.38414 1610
1359.941 -247.61276 1605
1361.5614 -246.99567 1601
1362.3033 -246.22429 1596
1363.0138 -245.45291 1591
1363.6931 -244.68153 1586
1363.4781 -243.75587 1580
1363.2255 -242.83022 1574
1363.8046 -242.05884 1569
1363.4801 -241.13319 1563
1363.118 -240.20753 1557
1362.7184 -239.28188 1551
1362.2814 -238.35622 1545
1363.5763 -237.73912 1541
1363.9583 -236.96774 1536
1363.4178 -236.04208 1530
1362.8398 -235.11642 1524
1362.2244 -234.19078 1518
1362.4718 -233.4194 1513
1361.7843 -232.49374 1507
1361.9659 -231.72237 1502
1363.0264 -231.10526 1498
1363.1486 -230.33388 1493
1362.3235 -229.40822 1487
1361.4607 -228.48256 1481
1361.4828 -227.71118 1476
1361.4738 -226.9398 1471
1361.4332 -226.16843 1466
1360.4297 -225.24277 1460
1361.2585 -224.62567 1456
1361.1241 -223.85429 1451
1360.9586 -223.08292 1446
1360.7616 -222.31152 1441
1360.5334 -221.54015 1436
1361.2246 -220.92305 1432
1360.9369 -220.15167 1427
1362.5316 -219.68883 1424
1362.1876 -218.91745 1419
1362.7755 -218.30035 1415
1362.3721 -217.52898 1410
1362.9067 -216.91188 1406
1362.4438 -216.1405 1401
1362.9253 -215.52339 1397
1363.3817 -214.90628 1393
1362.8313 -214.1349 1388
1363.2344 -213.51781 1384
1362.6245 -212.74641 1379
1362.9745 -212.12932 1375
1362.3052 -211.35794 1370
1362.6019 -210.74084 1366
1354.5002 -249.23248 1641
1356.321 -248.62498 1637
1357.285 -247.86559 1632
1359.0526 -247.25807 1628
1359.957 -246.49869 1623
1359.9893 -245.5874 1617
1359.984 -244.67613 1611
1360.7883 -243.91675 1606
1362.4119 -243.30923 1602
1363.1569 -242.54984 1597
1363.0138 -241.63857 1591
1363.6931 -240.87918 1586
1363.4781 -239.9679 1580
1363.2255 -239.05663 1574
1363.8046 -238.29724 1569
1363.4801 -237.38599 1563
1363.118 -236.4747 1557
1362.7184 -235.56343 1551
1363.1631 -234.80405 1546
1363.5763 -234.04465 1541
1363.9583 -233.28525 1536
1363.4178 -232.37398 1530
1362.8398 -231.46271 1524
1363.1217 -230.70331 1519
1362.4718 -229.79205 1513
1361.7843 -228.88078 1507
1361.9659 -228.1214 1502
1362.1165 -227.362 1497
1362.2356 -226.60262 1492
1362.3235 -225.84322 1487
1362.38 -225.08383 1482
1361.4828 -224.17255 1476
1361.4738 -223.41316 1471
1361.4332 -222.65376 1466
1360.4297 -221.74249 1460
1361.2585 -221.13498 1456
1361.1241 -220.3756 1451
1360.9586 -219.6162 1446
1361.7059 -219.00868 1442
1361.481 -218.2493 1437
1361.2246 -217.4899 1432
1361.8906 -216.8824 1428
1361.5748 -216.123 1423
1362.1876 -215.51547 1419
1362.7755 -214.90796 1415
1362.3721 -214.14857 1410
1362.9067 -213.54106 1406
1362.4438 -212.78168 1401
1362.9253 -212.17416 1397
1362.403 -211.41476 1392
1362.8313 -210.80724 1388
1363.2344 -210.19972 1384
1362.6245 -209.44034 1379
1362.9745 -208.83282 1375
1362.3052 -208.07344 1370
1362.6019 -207.46593 1366
1356.9764 -245.7467 1644
1358.8066 -245.14879 1640
1359.78 -244.40138 1635
1360.7222 -243.65398 1630
1361.6329 -242.90657 1625
1361.6714 -242.00969 1619
1361.6724 -241.11281 1613
1361.6356 -240.21593 1607
1362.4119 -239.46852 1602
1363.1569 -238.72112 1597
1363.8705 -237.97371 1592
1364.553 -237.2263 1587
1364.3411 -236.32942 1581
1364.0916 -235.43253 1575
1363.8046 -234.53564 1569
1364.3525 -233.78824 1564
1363.9935 -232.89136 1558
1363.597 -231.99448 1552
1364.0448 -231.24707 1547
1364.4612 -230.49966 1542
1363.9583 -229.60277 1536
1363.4178 -228.70589 1530
1362.8398 -227.80899 1524
1363.1217 -227.06158 1519
1362.4718 -226.16472 1513
1361.7843 -225.26782 1507
1361.9659 -224.52043 1502
1362.1165 -223.77303 1497
1363.1486 -223.17509 1493
1363.2396 -222.42769 1488
1362.38 -221.53081 1482
1361.4828 -220.63391 1476
1361.4738 -219.88651 1471
1361.4332 -219.1391 1466
1360.4297 -218.24222 1460
1361.2585 -217.6443 1456
1362.0621 -217.04637 1452
1362.8409 -216.44846 1448
1362.6503 -215.70105 1443
1362.4283 -214.95364 1438
1362.1752 -214.20624 1433
1361.8906 -213.45883 1428
1362.5316 -212.8609 1424
1362.1876 -212.11349 1419
1362.7755 -211.51558 1415
1363.3383 -210.91765 1411
1362.9067 -210.17024 1406
1363.4163 -209.57233 1402
1362.9253 -208.82492 1397
1362.403 -208.07751 1392
1361.8494 -207.33011 1387
1363.2344 -206.88165 1384
1363.6127 -206.28374 1380
1362.9745 -205.53633 1375
1363.2996 -204.93842 1371
1362.6019 -204.19101 1366
1357.802 -241.95239 1645
1359.6351 -241.36406 1641
1360.6117 -240.62865 1636
1361.5569 -239.89322 1631
1362.4708 -239.15781 1626
1362.5125 -238.2753 1620
1362.5165 -237.39279 1614
1362.4829 -236.51031 1608
1362.4119 -235.62781 1602
1363.1569 -234.8924 1597
1363.8705 -234.15697 1592
1364.553 -233.42155 1587
1364.3411 -232.53905 1581
1364.0916 -231.65654 1575
1363.8046 -230.77403 1569
1364.3525 -230.03862 1564
1363.9935 -229.15614 1558
1363.597 -228.27364 1552
1363.1631 -227.39113 1546
1363.5763 -226.65572 1541
1363.9583 -225.92029 1536
1363.4178 -225.03778 1530
1362.8398 -224.15529 1524
1362.2244 -223.2728 1518
1362.4718 -222.53738 1513
1361.7843 -221.65488 1507
1361.9659 -220.91945 1502
1362.1165 -220.18404 1497
1363.1486 -219.5957 1493
1363.2396 -218.86029 1488
1363.2992 -218.12488 1483
1362.4052 -217.24237 1477
1362.3993 -216.50696 1472
1361.4332 -215.62445 1466
1361.3615 -214.88902 1461
1362.1934 -214.3007 1457
1363.0004 -213.71237 1453
