ply
format ascii 1.0
comment PCL generated
element vertex 1956
property float x
property float y
property float z
element camera 0
property float view_px
property float view_py
property float view_pz
property float x_axisx
property float x_axisy
property float x_axisz
property float y_axisx
property float y_axisy
property float y_axisz
property float z_axisx
property float z_axisy
property float z_axisz
property float focal
property float scalex
property float scaley
property float centerx
property float centery
property int viewportx
property int viewporty
property float k1
property float k2
end_header
-411.18341 195.54027 772
-408.7677 195.54027 772
-406.35202 195.54027 772
-403.41315 195.28697 771
-401.52069 195.54027 772
-399.10501 195.54027 772
-396.68936 195.54027 772
-394.27368 195.54027 772
-391.858 195.54027 772
-389.44232 195.54027 772
-387.52802 195.79355 773
-385.10922 195.79355 773
-382.19531 195.54027 772
-379.77966 195.54027 772
-377.36398 195.54027 772
-374.9483 195.54027 772
-372.05011 195.28697 771
-369.15811 195.03368 770
-366.74872 195.03368 770
-364.33929 195.03368 770
-361.45987 194.78038 769
-359.05356 194.78038 769
-356.64728 194.78038 769
-354.241 194.78038 769
-351.83472 194.78038 769
-349.42844 194.78038 769
-346.57089 194.5271 768
-344.16772 194.5271 768
-341.76456 194.5271 768
-338.91953 194.27382 767
-336.5195 194.27382 767
-333.68387 194.02052 766
-331.28699 194.02052 766
-328.89008 194.02052 766
-326.06696 193.76723 765
-323.67319 193.76723 765
-320.85944 193.51393 764
-319.30249 194.02052 766
-316.90561 194.02052 766
-314.5087 194.02052 766
-311.70435 193.76723 765
-309.31058 193.76723 765
-306.91681 193.76723 765
-304.52304 193.76723 765
-301.73434 193.51393 764
-299.34372 193.51393 764
-296.95306 193.51393 764
-294.56244 193.51393 764
-292.17178 193.51393 764
-289.78116 193.51393 764
-287.76666 193.76723 765
-284.99988 193.51393 764
-282.60925 193.51393 764
-280.2186 193.51393 764
-277.82797 193.51393 764
-275.43732 193.51393 764
-273.04669 193.51393 764
-270.65607 193.51393 764
-268.26541 193.51393 764
-265.87479 193.51393 764
-263.13925 193.26065 763
-260.75174 193.26065 763
-258.36423 193.26065 763
-255.97673 193.26065 763
-253.58922 193.26065 763
-251.20171 193.26065 763
-248.48811 193.00735 762
-246.10373 193.00735 762
-243.71936 193.00735 762
-241.33498 193.00735 762
-238.95059 193.00735 762
-236.56622 193.00735 762
-234.18184 193.00735 762
-231.79745 193.00735 762
-229.112 192.75407 761
-226.73074 192.75407 761
-224.3495 192.75407 761
-221.96825 192.75407 761
-219.58699 192.75407 761
-217.20575 192.75407 761
-214.82449 192.75407 761
-212.44325 192.75407 761
-210.062 192.75407 761
-207.95366 193.00735 762
-205.56927 193.00735 762
-203.18491 193.00735 762
-200.80052 193.00735 762
-198.41614 193.00735 762
-196.03177 193.00735 762
-193.39325 192.75407 761
-191.01201 192.75407 761
-188.63075 192.75407 761
-186.2495 192.75407 761
-183.62663 192.50076 760
-181.24852 192.50076 760
-178.63504 192.24748 759
-176.49228 192.50076 760
-173.88506 192.24748 759
-171.51006 192.24748 759
-169.13507 192.24748 759
-166.76007 192.24748 759
-164.38509 192.24748 759
-162.0101 192.24748 759
-159.6351 192.24748 759
-157.26012 192.24748 759
-154.88512 192.24748 759
-152.51013 192.24748 759
-150.13513 192.24748 759
-147.76015 192.24748 759
-145.1936 191.99419 758
-142.82173 191.99419 758
-140.44987 191.99419 758
-137.89584 191.74091 757
-135.52711 191.74091 757
-133.15839 191.74091 757
-130.96242 191.99419 758
-128.76021 192.24748 759
-126.55173 192.50076 760
11.304456 191.23431 755
13.648829 190.98103 754
15.986946 190.72774 753
18.343163 190.72774 753
20.72687 190.98103 754
23.086216 190.98103 754
25.445562 190.98103 754
27.804909 190.98103 754
30.12425 190.72774 753
32.480469 190.72774 753
34.836685 190.72774 753
37.192902 190.72774 753
39.496597 190.47446 752
41.849686 190.47446 752
44.202774 190.47446 752
46.555862 190.47446 752
48.973991 190.72774 753
51.330208 190.72774 753
53.686428 190.72774 753
56.042645 190.72774 753
58.398861 190.72774 753
60.755081 190.72774 753
63.027485 190.47446 752
65.467514 190.72774 753
67.82373 190.72774 753
70.179947 190.72774 753
72.536171 190.72774 753
74.892387 190.72774 753
77.146011 190.47446 752
79.4991 190.47446 752
81.852188 190.47446 752
84.205276 190.47446 752
86.558365 190.47446 752
88.911461 190.47446 752
91.264549 190.47446 752
93.493141 190.22116 751
95.843102 190.22116 751
98.193062 190.22116 751
100.54302 190.22116 751
102.89298 190.22116 751
105.24294 190.22116 751
107.44964 189.96786 750
109.79647 189.96786 750
112.1433 189.96786 750
114.49013 189.96786 750
116.83696 189.96786 750
119.18379 189.96786 750
121.53062 189.96786 750
123.87745 189.96786 750
126.22428 189.96786 750
128.57111 189.96786 750
130.74338 189.71457 749
133.08708 189.71457 749
135.43079 189.71457 749
137.77449 189.71457 749
139.93111 189.46129 748
142.27168 189.46129 748
144.80559 189.71457 749
147.14929 189.71457 749
149.493 189.71457 749
151.8367 189.71457 749
153.97455 189.46129 748
156.31512 189.46129 748
158.65569 189.46129 748
160.99626 189.46129 748
163.55521 189.71457 749
165.8989 189.71457 749
168.2426 189.71457 749
170.5863 189.71457 749
172.93001 189.71457 749
175.03969 189.46129 748
177.38026 189.46129 748
179.72084 189.46129 748
182.06142 189.46129 748
184.40198 189.46129 748
186.74255 189.46129 748
189.08313 189.46129 748
191.42371 189.46129 748
193.76427 189.46129 748
195.84267 189.20801 747
198.18011 189.20801 747
200.51756 189.20801 747
202.855 189.20801 747
205.19244 189.20801 747
207.52989 189.20801 747
209.58636 188.95471 746
212.20477 189.20801 747
214.54222 189.20801 747
216.87965 189.20801 747
218.92363 188.95471 746
221.55455 189.20801 747
223.89198 189.20801 747
226.22943 189.20801 747
228.56688 189.20801 747
230.90431 189.20801 747
233.24176 189.20801 747
235.57921 189.20801 747
237.59813 188.95471 746
239.93245 188.95471 746
242.26677 188.95471 746
244.60107 188.95471 746
246.60439 188.70142 745
248.93558 188.70142 745
251.26675 188.70142 745
253.59795 188.70142 745
255.92914 188.70142 745
258.26031 188.70142 745
260.59149 188.70142 745
262.9227 188.70142 745
265.25388 188.70142 745
267.58505 188.70142 745
269.91623 188.70142 745
272.24744 188.70142 745
274.57861 188.70142 745
276.90979 188.70142 745
279.24097 188.70142 745
281.57217 188.70142 745
283.90335 188.70142 745
286.23453 188.70142 745
288.95303 188.95471 746
291.28735 188.95471 746
293.62167 188.95471 746
295.95599 188.95471 746
297.89044 188.70142 745
300.22165 188.70142 745
302.55283 188.70142 745
304.884 188.70142 745
307.21521 188.70142 745
309.13086 188.44812 744
311.45892 188.44812 744
313.78699 188.44812 744
315.69016 188.19484 743
318.01508 188.19484 743
319.90887 187.94154 742
322.23068 187.94154 742
324.55249 187.94154 742
327.31479 188.19484 743
329.63971 188.19484 743
331.96466 188.19484 743
334.28958 188.19484 743
336.6145 188.19484 743
338.93942 188.19484 743
341.26434 188.19484 743
343.58929 188.19484 743
345.44867 187.94154 742
347.77045 187.94154 742
350.09225 187.94154 742
352.41406 187.94154 742
354.73584 187.94154 742
357.05765 187.94154 742
359.37943 187.94154 742
361.70123 187.94154 742
364.02304 187.94154 742
366.34482 187.94154 742
368.66663 187.94154 742
370.98843 187.94154 742
373.31021 187.94154 742
375.63202 187.94154 742
377.44443 187.68826 741
379.76309 187.68826 741
382.08176 187.68826 741
384.40045 187.68826 741
387.241 187.94154 742
389.56281 187.94154 742
391.88461 187.94154 742
394.20639 187.94154 742
396.5282 187.94154 742
398.85001 187.94154 742
400.6311 187.68826 741
402.9498 187.68826 741
405.26846 187.68826 741
407.58713 187.68826 741
409.90579 187.68826 741
411.66815 187.43495 740
413.9837 187.43495 740
416.29926 187.43495 740
418.61478 187.43495 740
420.93033 187.43495 740
423.24585 187.43495 740
424.98633 187.18167 739
427.29874 187.18167 739
429.61115 187.18167 739
431.92355 187.18167 739
434.23596 187.18167 739
436.54837 187.18167 739
438.86078 187.18167 739
441.77017 187.43495 740
444.08572 187.43495 740
446.40125 187.43495 740
448.7168 187.43495 740
451.03232 187.43495 740
452.73526 187.18167 739
455.04767 187.18167 739
457.36008 187.18167 739
459.05042 186.92839 738
461.35971 186.92839 738
463.66898 186.92839 738
465.97827 186.92839 738
468.28754 186.92839 738
470.59683 186.92839 738
473.54694 187.18167 739
475.85934 187.18167 739
478.17175 187.18167 739
480.48416 187.18167 739
482.14322 186.92839 738
484.45251 186.92839 738
486.76181 186.92839 738
489.07108 186.92839 738
491.38037 186.92839 738
493.68964 186.92839 738
495.99893 186.92839 738
497.633 186.67509 737
499.93915 186.67509 737
502.2453 186.67509 737
504.55145 186.67509 737
506.8576 186.67509 737
509.16376 186.67509 737
511.46991 186.67509 737
513.77606 186.67509 737
516.08221 186.67509 737
518.38837 186.67509 737
520.69452 186.67509 737
523.71027 186.92839 738
526.01959 186.92839 738
528.32886 186.92839 738
530.63812 186.92839 738
532.94739 186.92839 738
535.25671 186.92839 738
537.56598 186.92839 738
539.14374 186.67509 737
542.18457 186.92839 738
544.49384 186.92839 738
546.06219 186.67509 737
548.36835 186.67509 737
549.92731 186.42181 736
552.23035 186.42181 736
554.53339 186.42181 736
556.07983 186.1685 735
558.3797 186.1685 735
560.67963 186.1685 735
562.97949 186.1685 735
565.27942 186.1685 735
567.57928 186.1685 735
569.87921 186.1685 735
572.17908 186.1685 735
574.479 186.1685 735
576.77887 186.1685 735
579.0788 186.1685 735
581.37866 186.1685 735
583.67853 186.1685 735
585.97845 186.1685 735
588.27832 186.1685 735
590.57825 186.1685 735
592.07147 185.91522 734
594.36823 185.91522 734
597.47791 186.1685 735
599.77783 186.1685 735
602.0777 186.1685 735
604.37762 186.1685 735
606.67749 186.1685 735
609.80591 186.42181 736
612.10895 186.42181 736
614.41199 186.42181 736
616.71497 186.42181 736
619.01801 186.42181 736
621.32104 186.42181 736
623.62402 186.42181 736
625.07666 186.1685 735
627.37653 186.1685 735
629.67645 186.1685 735
631.11646 185.91522 734
633.41321 185.91522 734
635.70996 185.91522 734
638.00677 185.91522 734
640.30353 185.91522 734
642.60028 185.91522 734
644.89703 185.91522 734
647.19379 185.91522 734
649.49054 185.91522 734
652.67535 186.1685 735
654.97528 186.1685 735
657.27515 186.1685 735
658.67761 185.91522 734
660.97437 185.91522 734
663.27118 185.91522 734
665.56793 185.91522 734
667.86469 185.91522 734
669.24841 185.66193 733
671.54205 185.66193 733
673.83569 185.66193 733
676.12933 185.66193 733
678.42297 185.66193 733
680.71661 185.66193 733
683.01025 185.66193 733
685.30389 185.66193 733
687.59753 185.66193 733
689.89117 185.66193 733
692.18481 185.66193 733
694.47845 185.66193 733
696.77203 185.66193 733
699.06567 185.66193 733
701.35931 185.66193 733
703.65295 185.66193 733
704.98352 185.40865 732
707.27405 185.40865 732
709.56451 185.40865 732
711.85504 185.40865 732
714.14557 185.40865 732
716.43604 185.40865 732
718.72656 185.40865 732
721.01709 185.40865 732
723.30756 185.40865 732
725.59808 185.40865 732
727.88861 185.40865 732
730.17908 185.40865 732
-685.97839 193.81146 758
-683.60657 193.81146 758
-682.13342 194.06714 759
-680.65399 194.32283 760
-678.27588 194.32283 760
-676.78711 194.57854 761
-675.29205 194.83421 762
-672.90765 194.83421 762
-671.40326 195.0899 763
-669.01575 195.0899 763
-666.62823 195.0899 763
-664.24072 195.0899 763
-662.72064 195.34558 764
-660.33002 195.34558 764
-657.93933 195.34558 764
-655.54871 195.34558 764
-653.15808 195.34558 764
-649.91571 195.0899 763
-648.37683 195.34558 764
-645.98615 195.34558 764
-643.59552 195.34558 764
-641.2049 195.34558 764
-637.97815 195.0899 763
-635.59064 195.0899 763
-633.20312 195.0899 763
-630.81561 195.0899 763
-628.4281 195.0899 763
-626.04059 195.0899 763
-624.4704 195.34558 764
-621.26556 195.0899 763
-618.87805 195.0899 763
-616.49054 195.0899 763
-614.10303 195.0899 763
-612.51721 195.34558 764
-610.12659 195.34558 764
-607.73596 195.34558 764
-605.34534 195.34558 764
-602.95471 195.34558 764
-600.56403 195.34558 764
-598.1734 195.34558 764
-595.78278 195.34558 764
-593.39215 195.34558 764
-591.00153 195.34558 764
-588.61084 195.34558 764
-586.22021 195.34558 764
-583.82959 195.34558 764
-581.43896 195.34558 764
-579.04828 195.34558 764
-576.65765 195.34558 764
-575.01868 195.60127 765
-571.8764 195.34558 764
-570.23114 195.60127 765
-567.8374 195.60127 765
-565.4436 195.60127 765
-563.04987 195.60127 765
-560.65613 195.60127 765
-558.26233 195.60127 765
-555.86859 195.60127 765
-553.47479 195.60127 765
-551.08105 195.60127 765
-548.68726 195.60127 765
-546.29352 195.60127 765
-543.89972 195.60127 765
-541.50598 195.60127 765
-539.11218 195.60127 765
-536.71844 195.60127 765
-535.02313 195.85696 766
-533.32159 196.11266 767
-530.92157 196.11266 767
-527.83246 195.85696 766
-526.12152 196.11266 767
-523.03864 195.85696 766
-520.64178 195.85696 766
-518.24487 195.85696 766
-515.84796 195.85696 766
-513.45105 195.85696 766
-511.05417 195.85696 766
-509.32135 196.11266 767
-506.92133 196.11266 767
-504.5213 196.11266 767
-502.12128 196.11266 767
-499.72122 196.11266 767
-497.96964 196.36835 768
-495.56647 196.36835 768
-493.1633 196.36835 768
-490.76016 196.36835 768
-488.35699 196.36835 768
-485.95386 196.36835 768
-483.55069 196.36835 768
-481.14755 196.36835 768
-478.74438 196.36835 768
-476.34125 196.36835 768
-473.93808 196.36835 768
-471.53491 196.36835 768
-469.13177 196.36835 768
-466.72861 196.36835 768
-464.32547 196.36835 768
-461.9223 196.36835 768
-459.51917 196.36835 768
-457.116 196.36835 768
-454.71286 196.36835 768
-452.30969 196.36835 768
-449.90652 196.36835 768
-448.08603 196.62402 769
-445.67975 196.62402 769
-443.27347 196.62402 769
-440.86719 196.62402 769
-438.46091 196.62402 769
-436.05463 196.62402 769
-433.64835 196.62402 769
-431.24203 196.62402 769
-428.83575 196.62402 769
-426.42947 196.62402 769
-424.57462 196.87971 770
-422.16519 196.87971 770
-419.75577 196.87971 770
-417.34637 196.87971 770
-414.93695 196.87971 770
-412.52756 196.87971 770
-410.65076 197.13541 771
-408.23822 197.13541 771
-405.29932 196.87971 770
-402.88989 196.87971 770
-400.48047 196.87971 770
-398.58804 197.13541 771
-396.17551 197.13541 771
-393.76297 197.13541 771
-391.35043 197.13541 771
-388.9379 197.13541 771
-386.52536 197.13541 771
-384.11279 197.13541 771
-381.70026 197.13541 771
-379.28772 197.13541 771
-376.87518 197.13541 771
-374.46265 197.13541 771
-371.56754 196.87971 770
-368.67871 196.62402 769
-366.27243 196.62402 769
-363.39297 196.36835 768
-360.98981 196.36835 768
-358.58664 196.36835 768
-356.1835 196.36835 768
-353.31967 196.11266 767
-351.3772 196.36835 768
-348.97403 196.36835 768
-346.1196 196.11266 767
-343.71957 196.11266 767
-341.31955 196.11266 767
-338.47766 195.85696 766
-335.642 195.60127 765
-333.24823 195.60127 765
-330.85446 195.60127 765
-328.46069 195.60127 765
-326.06696 195.60127 765
-323.25009 195.34558 764
-320.85944 195.34558 764
-318.88565 195.60127 765
-316.49188 195.60127 765
-314.09811 195.60127 765
-311.29691 195.34558 764
-308.90625 195.34558 764
-306.51562 195.34558 764
-304.12497 195.34558 764
-301.33939 195.0899 763
-298.95187 195.0899 763
-296.56436 195.0899 763
-294.17688 195.0899 763
-291.78937 195.0899 763
-289.40186 195.0899 763
-287.3905 195.34558 764
-284.99988 195.34558 764
-282.23932 195.0899 763
-279.85181 195.0899 763
-277.46429 195.0899 763
-275.07678 195.0899 763
-272.6893 195.0899 763
-269.94754 194.83421 762
-267.91428 195.0899 763
-265.52676 195.0899 763
-262.7944 194.83421 762
-260.41 194.83421 762
-258.36423 195.0899 763
-255.64125 194.83421 762
-253.25687 194.83421 762
-250.8725 194.83421 762
-248.162 194.57854 761
-246.10373 194.83421 762
-243.39951 194.57854 761
-241.01825 194.57854 761
-238.63699 194.57854 761
-236.25575 194.57854 761
-233.8745 194.57854 761
-231.49326 194.57854 761
-228.81094 194.32283 760
-226.43282 194.32283 760
-224.0547 194.32283 760
-221.67657 194.32283 760
-219.29846 194.32283 760
-216.92033 194.32283 760
-214.54222 194.32283 760
-212.16409 194.32283 760
-210.062 194.57854 761
-207.68074 194.57854 761
-205.2995 194.57854 761
-202.91826 194.57854 761
-200.537 194.57854 761
-198.15576 194.57854 761
-195.77451 194.57854 761
-193.13913 194.32283 760
-190.761 194.32283 760
-188.38287 194.32283 760
-186.00476 194.32283 760
-183.38503 194.06714 759
-181.01003 194.06714 759
-178.63504 194.06714 759
-176.26004 194.06714 759
-173.65596 193.81146 758
-171.28409 193.81146 758
-168.91223 193.81146 758
-166.54037 193.81146 758
-164.1685 193.81146 758
-161.79665 193.81146 758
-159.42477 193.81146 758
-157.05292 193.81146 758
-154.68105 193.81146 758
-152.30919 193.81146 758
-149.93733 193.81146 758
-147.56546 193.81146 758
-145.00204 193.55577 757
-142.63332 193.55577 757
-140.26459 193.55577 757
-137.71368 193.30009 756
-135.34808 193.30009 756
-132.98248 193.30009 756
-130.78964 193.55577 757
-128.59056 193.81146 758
-126.2187 193.81146 758
11.289483 192.78871 754
13.630728 192.53302 753
15.965714 192.27734 752
18.318802 192.27734 752
20.699381 192.53302 753
23.055599 192.53302 753
25.411816 192.53302 753
27.768032 192.53302 753
30.084244 192.27734 752
32.437332 192.27734 752
34.790421 192.27734 752
37.143509 192.27734 752
39.496597 192.27734 752
41.849686 192.27734 752
44.202774 192.27734 752
46.555862 192.27734 752
48.908951 192.27734 752
51.262039 192.27734 752
53.615128 192.27734 752
55.968216 192.27734 752
58.321308 192.27734 752
60.674397 192.27734 752
62.943668 192.02165 751
65.293633 192.02165 751
67.643585 192.02165 751
69.993546 192.02165 751
72.343506 192.02165 751
74.792923 192.27734 752
77.043427 192.02165 751
79.393387 192.02165 751
81.743347 192.02165 751
84.093307 192.02165 751
86.44326 192.02165 751
88.793221 192.02165 751
91.143181 192.02165 751
93.493141 192.02165 751
95.843102 192.02165 751
98.193062 192.02165 751
100.40914 191.76595 750
102.61897 191.51027 749
104.96267 191.51027 749
107.30637 191.51027 749
109.65007 191.51027 749
111.99377 191.51027 749
114.33748 191.51027 749
116.68118 191.51027 749
119.02488 191.51027 749
121.36858 191.51027 749
123.71228 191.51027 749
126.05598 191.51027 749
128.39969 191.51027 749
130.56883 191.25458 748
132.90939 191.25458 748
135.24997 191.25458 748
137.59055 191.25458 748
139.93111 191.25458 748
142.27168 191.25458 748
144.61226 191.25458 748
146.95284 191.25458 748
149.2934 191.25458 748
151.63397 191.25458 748
153.76869 190.9989 747
156.10614 190.9989 747
158.44359 190.9989 747
160.78102 190.9989 747
163.33684 191.25458 748
165.67741 191.25458 748
168.01797 191.25458 748
170.35855 191.25458 748
172.69913 191.25458 748
175.03969 191.25458 748
177.14313 190.9989 747
179.48058 190.9989 747
181.81801 190.9989 747
184.15546 190.9989 747
186.4929 190.9989 747
188.57756 190.74321 746
190.91187 190.74321 746
193.24619 190.74321 746
195.84267 190.9989 747
197.91481 190.74321 746
200.24913 190.74321 746
202.58344 190.74321 746
204.91776 190.74321 746
207.25206 190.74321 746
209.58636 190.74321 746
211.92068 190.74321 746
214.255 190.74321 746
216.58931 190.74321 746
218.63017 190.4875 745
220.96136 190.4875 745
223.59225 190.74321 746
225.92657 190.74321 746
228.26088 190.74321 746
230.2861 190.4875 745
232.9295 190.74321 746
235.26382 190.74321 746
237.59813 190.74321 746
239.61084 190.4875 745
241.94202 190.4875 745
244.27321 190.4875 745
246.27336 190.23183 744
248.60143 190.23183 744
250.92947 190.23183 744
252.91714 189.97614 743
255.58559 190.23183 744
257.91364 190.23183 744
260.2417 190.23183 744
262.56976 190.23183 744
264.8978 190.23183 744
267.22586 190.23183 744
269.55392 190.23183 744
271.88199 190.23183 744
274.21002 190.23183 744
276.53809 190.23183 744
278.86615 190.23183 744
281.19421 190.23183 744
283.52225 190.23183 744
286.23453 190.4875 745
288.5657 190.4875 745
290.89691 190.4875 745
293.22809 190.4875 745
295.55927 190.4875 745
297.4906 190.23183 744
299.81863 190.23183 744
302.1467 190.23183 744
304.47476 190.23183 744
306.80283 190.23183 744
309.13086 190.23183 744
311.45892 190.23183 744
313.78699 190.23183 744
315.69016 189.97614 743
317.5871 189.72046 742
319.47772 189.46477 741
321.79639 189.46477 741
324.11505 189.46477 741
326.43375 189.46477 741
329.19608 189.72046 742
331.51788 189.72046 742
333.83966 189.72046 742
336.16147 189.72046 742
338.48328 189.72046 742
340.80505 189.72046 742
343.12686 189.72046 742
345.44867 189.72046 742
347.30176 189.46477 741
349.62042 189.46477 741
351.93909 189.46477 741
354.73584 189.72046 742
357.05765 189.72046 742
359.37943 189.72046 742
361.21375 189.46477 741
363.53244 189.46477 741
365.8511 189.46477 741
368.16977 189.46477 741
370.48843 189.46477 741
372.30399 189.20908 740
375.12576 189.46477 741
376.93509 189.20908 740
379.25061 189.20908 740
381.56616 189.20908 740
383.88168 189.20908 740
386.71912 189.46477 741
389.03778 189.46477 741
391.35645 189.46477 741
393.67511 189.46477 741
395.99377 189.46477 741
398.31244 189.46477 741
400.09045 189.20908 740
402.40601 189.20908 740
404.72156 189.20908 740
407.03708 189.20908 740
409.35263 189.20908 740
411.66815 189.20908 740
413.9837 189.20908 740
416.29926 189.20908 740
418.0491 188.95338 739
420.36151 188.95338 739
422.67392 188.95338 739
424.98633 188.95338 739
426.72049 188.69771 738
429.02979 188.69771 738
431.33905 188.69771 738
433.64835 188.69771 738
436.54837 188.95338 739
438.86078 188.95338 739
441.17319 188.95338 739
443.4856 188.95338 739
445.798 188.95338 739
448.11044 188.95338 739
450.42285 188.95338 739
452.73526 188.95338 739
454.43185 188.69771 738
456.74115 188.69771 738
459.05042 188.69771 738
461.35971 188.69771 738
463.04071 188.44202 737
465.34686 188.44202 737
467.65302 188.44202 737
469.95917 188.44202 737
472.9061 188.69771 738
475.21539 188.69771 738
477.52466 188.69771 738
479.18378 188.44202 737
481.48993 188.44202 737
483.79608 188.44202 737
486.10223 188.44202 737
488.40839 188.44202 737
490.71454 188.44202 737
493.02069 188.44202 737
495.32684 188.44202 737
496.95779 188.18633 736
499.2608 188.18633 736
501.56384 188.18633 736
503.86685 188.18633 736
506.16989 188.18633 736
509.16376 188.44202 737
510.77594 188.18633 736
513.07898 188.18633 736
515.38196 188.18633 736
517.685 188.18633 736
519.98804 188.18633 736
522.29108 188.18633 736
525.30682 188.44202 737
527.61298 188.44202 737
529.91913 188.44202 737
532.22528 188.44202 737
534.53143 188.44202 737
536.83759 188.44202 737
539.14374 188.44202 737
541.44989 188.44202 737
543.75604 188.44202 737
545.32129 188.18633 736
547.62427 188.18633 736
549.92731 188.18633 736
551.48004 187.93063 735
553.77991 187.93063 735
555.32324 187.67494 734
557.62 187.67494 734
559.91675 187.67494 734
562.2135 187.67494 734
564.51025 187.67494 734
566.80707 187.67494 734
569.10382 187.67494 734
571.40057 187.67494 734
573.69733 187.67494 734
575.99408 187.67494 734
578.29089 187.67494 734
580.58765 187.67494 734
582.8844 187.67494 734
585.18115 187.67494 734
587.47791 187.67494 734
589.77472 187.67494 734
592.07147 187.67494 734
594.36823 187.67494 734
596.66498 187.67494 734
598.96173 187.67494 734
601.25848 187.67494 734
603.5553 187.67494 734
605.85205 187.67494 734
608.97736 187.93063 735
611.27728 187.93063 735
613.57715 187.93063 735
615.87708 187.93063 735
618.17694 187.93063 735
620.47687 187.93063 735
622.77673 187.93063 735
625.07666 187.93063 735
626.52295 187.67494 734
627.96301 187.41927 733
630.25665 187.41927 733
632.55029 187.41927 733
634.84393 187.41927 733
637.13751 187.41927 733
639.43115 187.41927 733
641.72479 187.41927 733
644.01843 187.41927 733
646.31207 187.41927 733
649.49054 187.67494 734
651.78735 187.67494 734
654.08411 187.67494 734
656.38086 187.67494 734
658.67761 187.67494 734
660.07391 187.41927 733
662.36755 187.41927 733
664.66119 187.41927 733
666.95477 187.41927 733
668.33545 187.16357 732
670.62592 187.16357 732
672.91644 187.16357 732
675.20697 187.16357 732
677.49744 187.16357 732
679.78796 187.16357 732
682.07843 187.16357 732
684.36896 187.16357 732
686.65948 187.16357 732
688.94995 187.16357 732
692.18481 187.41927 733
694.47845 187.41927 733
696.77203 187.41927 733
698.112 187.16357 732
700.40253 187.16357 732
702.69299 187.16357 732
704.98352 187.16357 732
706.3078 186.9079 731
708.59521 186.9079 731
710.88257 186.9079 731
714.14557 187.16357 732
715.45734 186.9079 731
717.74469 186.9079 731
720.0321 186.9079 731
722.31946 186.9079 731
724.60681 186.9079 731
726.89423 186.9079 731
729.18158 186.9079 731
-685.62592 194.85446 755
-684.1684 195.11256 756
-682.70465 195.37065 757
-680.33594 195.37065 757
-678.86279 195.62872 758
-677.38342 195.88681 759
-675.89777 196.1449 760
-674.40582 196.40298 761
-672.0246 196.40298 761
-669.64331 196.40298 761
-668.13892 196.66107 762
-664.88086 196.40298 761
-662.49957 196.40298 761
-660.98578 196.66107 762
-658.60138 196.66107 762
-656.21704 196.66107 762
-653.83264 196.66107 762
-651.44824 196.66107 762
-648.2121 196.40298 761
-645.83081 196.40298 761
-643.44958 196.40298 761
-641.91077 196.66107 762
-639.52637 196.66107 762
-637.14197 196.66107 762
-633.92456 196.40298 761
-631.54333 196.40298 761
-629.98883 196.66107 762
-627.60449 196.66107 762
-625.22009 196.66107 762
-622.83569 196.66107 762
-620.45135 196.66107 762
-617.2558 196.40298 761
-615.68256 196.66107 762
-613.29822 196.66107 762
-610.91382 196.66107 762
-609.32806 196.91916 763
-606.94055 196.91916 763
-604.55304 196.91916 763
-601.37628 196.66107 762
-598.99194 196.66107 762
-596.60754 196.66107 762
-594.22314 196.66107 762
-591.83881 196.66107 762
-590.22797 196.91916 763
-587.84045 196.91916 763
-585.45294 196.91916 763
-583.06543 196.91916 763
-580.67792 196.91916 763
-577.53247 196.66107 762
-575.14813 196.66107 762
-573.51538 196.91916 763
-570.37933 196.66107 762
-567.995 196.66107 762
-566.35291 196.91916 763
-563.96539 196.91916 763
-561.57788 196.91916 763
-559.19037 196.91916 763
-556.80286 196.91916 763
-554.41534 196.91916 763
-552.02783 196.91916 763
-549.64032 196.91916 763
-547.97003 197.17723 764
-545.57941 197.17723 764
-543.18872 197.17723 764
-540.7981 197.17723 764
-538.40747 197.17723 764
-536.01685 197.17723 764
-533.62616 197.17723 764
-531.23553 197.17723 764
-529.53711 197.43532 765
-526.45428 197.17723 764
-524.06366 197.17723 764
-521.67297 197.17723 764
-519.28235 197.17723 764
-516.89172 197.17723 764
-514.5011 197.17723 764
-512.11047 197.17723 764
-509.71982 197.17723 764
-507.99323 197.43532 765
-505.59946 197.43532 765
-503.20569 197.43532 765
-500.81192 197.43532 765
-498.41815 197.43532 765
-496.67279 197.69342 766
-494.27591 197.69342 766
-491.879 197.69342 766
-489.48212 197.69342 766
-487.08521 197.69342 766
-484.68832 197.69342 766
-482.29141 197.69342 766
-479.89453 197.69342 766
-477.49762 197.69342 766
-475.10074 197.69342 766
-472.70383 197.69342 766
-470.30695 197.69342 766
-467.91006 197.69342 766
-465.51315 197.69342 766
-463.11627 197.69342 766
-460.71936 197.69342 766
-458.32248 197.69342 766
-455.92557 197.69342 766
-454.12076 197.95149 767
-451.72073 197.95149 767
-449.32071 197.95149 767
-446.92068 197.95149 767
-444.52066 197.95149 767
-442.12064 197.95149 767
-439.72061 197.95149 767
-437.32059 197.95149 767
-434.92056 197.95149 767
-432.52054 197.95149 767
-430.12051 197.95149 767
-427.72049 197.95149 767
-425.32047 197.95149 767
-422.92044 197.95149 767
-420.52042 197.95149 767
-418.66553 198.20958 768
-416.26239 198.20958 768
-413.85922 198.20958 768
-411.45605 198.20958 768
-409.58551 198.46767 769
-407.17923 198.46767 769
-404.77295 198.46767 769
-401.84341 198.20958 768
-399.44028 198.20958 768
-397.55411 198.46767 769
-395.14783 198.46767 769
-392.2308 198.20958 768
-389.82767 198.20958 768
-387.92899 198.46767 769
-385.52267 198.46767 769
-383.11639 198.46767 769
-380.71011 198.46767 769
-378.30383 198.46767 769
-375.89755 198.46767 769
-373.00558 198.20958 768
-370.11984 197.95149 767
-367.71982 197.95149 767
-364.84351 197.69342 766
-362.44662 197.69342 766
-360.04974 197.69342 766
-357.65283 197.69342 766
-355.25595 197.69342 766
-352.85904 197.69342 766
-350.46216 197.69342 766
-347.61084 197.43532 765
-345.21707 197.43532 765
-342.37518 197.17723 764
-339.98456 197.17723 764
-337.5939 197.17723 764
-334.76453 196.91916 763
-332.37701 196.91916 763
-329.9895 196.91916 763
-327.60199 196.91916 763
-325.21448 196.91916 763
-322.40387 196.66107 762
-320.0195 196.66107 762
-318.05194 196.91916 763
-315.66446 196.91916 763
-313.27695 196.91916 763
-310.48199 196.66107 762
-308.0976 196.66107 762
-305.71323 196.66107 762
-302.93076 196.40298 761
-300.5495 196.40298 761
-298.16827 196.40298 761
-295.78702 196.40298 761
-293.40576 196.40298 761
-291.02451 196.40298 761
-289.02255 196.66107 762
-286.63818 196.66107 762
-284.25381 196.66107 762
-281.49951 196.40298 761
-279.11826 196.40298 761
-276.37338 196.1449 760
-273.99524 196.1449 760
-271.61713 196.1449 760
-269.23901 196.1449 760
-266.8609 196.1449 760
-264.83075 196.40298 761
-262.10464 196.1449 760
-259.72653 196.1449 760
-257.68701 196.40298 761
-254.97028 196.1449 760
-252.59216 196.1449 760
-250.21404 196.1449 760
-247.83592 196.1449 760
-245.45779 196.1449 760
-243.07967 196.1449 760
-240.38483 195.88681 759
-238.00984 195.88681 759
-235.63484 195.88681 759
-233.25986 195.88681 759
-230.88486 195.88681 759
-228.20882 195.62872 758
-225.83694 195.62872 758
-223.46509 195.62872 758
-220.80153 195.37065 757
-219.0099 195.88681 759
-216.6349 195.88681 759
-214.25992 195.88681 759
-211.88492 195.88681 759
-209.50993 195.88681 759
-207.13493 195.88681 759
-204.75995 195.88681 759
-202.38496 195.88681 759
-200.00996 195.88681 759
-197.37459 195.62872 758
-195.00273 195.62872 758
-192.63086 195.62872 758
-190.259 195.62872 758
-187.63927 195.37065 757
-185.27054 195.37065 757
-182.90179 195.37065 757
-180.53307 195.37065 757
-178.16432 195.37065 757
-175.79559 195.37065 757
-173.42686 195.37065 757
-170.83215 195.11256 756
-168.46655 195.11256 756
-166.10095 195.11256 756
-163.73535 195.11256 756
-161.36974 195.11256 756
-159.00414 195.11256 756
-156.63853 195.11256 756
-154.27292 195.11256 756
-151.70638 194.85446 755
-149.3439 194.85446 755
-146.98141 194.85446 755
-144.61894 194.85446 755
-142.25647 194.85446 755
-139.894 194.85446 755
-137.34935 194.59637 754
-134.99001 194.59637 754
-132.80656 194.85446 755
-130.61688 195.11256 756
-128.25127 195.11256 756
-125.88567 195.11256 756
11.259538 194.08022 752
13.594523 193.82214 751
15.923253 193.56404 750
18.270082 193.56404 750
20.644402 193.82214 751
22.963743 193.56404 750
25.34432 193.82214 751
27.694281 193.82214 751
30.044241 193.82214 751
32.394199 193.82214 751
34.697895 193.56404 750
37.044727 193.56404 750
39.391556 193.56404 750
41.682735 193.30595 749
44.026436 193.30595 749
46.432049 193.56404 750
48.778877 193.56404 750
51.125706 193.56404 750
53.472534 193.56404 750
55.819366 193.56404 750
58.166195 193.56404 750
60.513027 193.56404 750
62.776043 193.30595 749
65.119743 193.30595 749
67.463448 193.30595 749
69.807144 193.30595 749
72.150848 193.30595 749
74.494545 193.30595 749
76.838249 193.30595 749
79.181953 193.30595 749
81.52565 193.30595 749
83.869354 193.30595 749
86.328156 193.56404 750
88.556755 193.30595 749
90.900459 193.30595 749
93.244156 193.30595 749
95.58786 193.30595 749
97.931564 193.30595 749
100.14139 193.04787 748
102.48196 193.04787 748
104.6824 192.78979 747
107.01984 192.78979 747
109.35728 192.78979 747
111.5452 192.53171 746
113.87952 192.53171 746
116.21383 192.53171 746
118.70705 192.78979 747
121.04449 192.78979 747
123.38194 192.78979 747
125.88768 193.04787 748
128.22826 193.04787 748
130.39427 192.78979 747
132.7317 192.78979 747
135.06915 192.78979 747
137.22266 192.53171 746
139.55696 192.53171 746
141.89128 192.53171 746
144.03226 192.27361 745
146.36345 192.27361 745
148.69463 192.27361 745
151.22853 192.53171 746
153.56285 192.53171 746
155.68819 192.27361 745
158.01936 192.27361 745
160.35056 192.27361 745
162.9001 192.53171 746
165.23442 192.53171 746
167.56873 192.53171 746
169.90305 192.53171 746
172.23737 192.53171 746
174.57167 192.53171 746
176.90599 192.53171 746
179.00003 192.27361 745
181.33122 192.27361 745
183.6624 192.27361 745
185.99359 192.27361 745
188.32477 192.27361 745
190.40004 192.01553 744
192.7281 192.01553 744
195.05615 192.01553 744
197.38422 192.01553 744
199.71227 192.01553 744
202.31187 192.27361 745
204.36838 192.01553 744
206.69643 192.01553 744
209.02448 192.01553 744
211.35252 192.01553 744
213.9678 192.27361 745
216.00864 192.01553 744
218.04324 191.75745 743
220.66475 192.01553 744
222.99281 192.01553 744
225.32086 192.01553 744
227.64893 192.01553 744
229.66788 191.75745 743
231.99281 191.75745 743
234.31773 191.75745 743
236.64265 191.75745 743
238.96759 191.75745 743
241.29251 191.75745 743
243.61743 191.75745 743
245.94237 191.75745 743
247.93317 191.49936 742
250.25496 191.49936 742
252.57675 191.49936 742
254.89856 191.49936 742
257.22034 191.49936 742
259.54214 191.49936 742
261.86395 191.49936 742
264.18573 191.49936 742
266.50754 191.49936 742
268.82935 191.49936 742
271.15112 191.49936 742
273.47293 191.49936 742
276.16641 191.75745 743
278.49133 191.75745 743
280.81625 191.75745 743
283.1412 191.75745 743
285.46613 191.75745 743
287.79105 191.75745 743
290.11597 191.75745 743
292.44089 191.75745 743
294.36911 191.49936 742
297.09076 191.75745 743
299.41568 191.75745 743
301.7406 191.75745 743
303.65631 191.49936 742
305.97809 191.49936 742
307.8844 191.24129 741
310.20306 191.24129 741
312.52173 191.24129 741
314.84039 191.24129 741
316.73105 190.98318 740
319.0466 190.98318 740
321.36212 190.98318 740
323.67767 190.98318 740
325.99323 190.98318 740
328.30875 190.98318 740
330.6243 190.98318 740
332.93982 190.98318 740
335.25537 190.98318 740
337.57092 190.98318 740
339.88644 190.98318 740
342.202 190.98318 740
344.51752 190.98318 740
346.83307 190.98318 740
349.14859 190.98318 740
351.46414 190.98318 740
353.77969 190.98318 740
356.09521 190.98318 740
358.41077 190.98318 740
360.72629 190.98318 740
363.04184 190.98318 740
365.35739 190.98318 740
367.67291 190.98318 740
369.48846 190.7251 739
371.80087 190.7251 739
374.11328 190.7251 739
376.42569 190.7251 739
378.7381 190.7251 739
381.05051 190.7251 739
383.36292 190.7251 739
385.67532 190.7251 739
387.98773 190.7251 739
390.30014 190.7251 739
392.61255 190.7251 739
394.92496 190.7251 739
397.2374 190.7251 739
399.00916 190.46703 738
401.31842 190.46703 738
403.62772 190.46703 738
405.93698 190.46703 738
408.24628 190.46703 738
410.55551 190.46703 738
412.86481 190.46703 738
415.17407 190.46703 738
417.48337 190.46703 738
419.22385 190.20894 737
421.53 190.20894 737
423.83615 190.20894 737
426.1423 190.20894 737
427.8671 189.95085 736
430.17014 189.95085 736
432.47314 189.95085 736
434.77618 189.95085 736
437.67303 190.20894 737
439.97919 190.20894 737
442.28534 190.20894 737
444.59149 190.20894 737
446.89764 190.20894 737
449.2038 190.20894 737
451.50995 190.20894 737
453.8161 190.20894 737
456.12225 190.20894 737
458.42841 190.20894 737
460.10944 189.95085 736
462.41245 189.95085 736
464.71548 189.95085 736
467.01849 189.95085 736
469.32153 189.95085 736
471.62454 189.95085 736
473.92758 189.95085 736
476.23059 189.95085 736
477.88345 189.69275 735
480.18335 189.69275 735
482.48325 189.69275 735
484.78311 189.69275 735
487.08301 189.69275 735
489.3829 189.69275 735
491.6828 189.69275 735
493.9827 189.69275 735
496.28259 189.69275 735
498.58249 189.69275 735
500.20087 189.43468 734
503.18228 189.69275 735
505.48218 189.69275 735
507.78207 189.69275 735
510.08197 189.69275 735
512.38184 189.69275 735
514.68176 189.69275 735
516.98163 189.69275 735
518.57501 189.43468 734
520.87177 189.43468 734
523.88135 189.69275 735
526.18121 189.69275 735
528.48108 189.69275 735
530.78101 189.69275 735
533.08087 189.69275 735
535.3808 189.69275 735
537.68066 189.69275 735
539.98059 189.69275 735
542.28046 189.69275 735
544.58038 189.69275 735
546.13617 189.43468 734
548.43292 189.43468 734
549.97937 189.17659 733
552.27301 189.17659 733
554.56665 189.17659 733
556.10059 188.9185 732
558.39111 188.9185 732
560.68164 188.9185 732
563.74121 189.17659 733
566.03485 189.17659 733
568.32849 189.17659 733
569.84363 188.9185 732
572.13416 188.9185 732
574.42468 188.9185 732
576.71515 188.9185 732
579.00568 188.9185 732
581.2962 188.9185 732
583.58667 188.9185 732
585.8772 188.9185 732
588.16772 188.9185 732
589.65155 188.66043 731
592.74872 188.9185 732
595.03925 188.9185 732
597.32971 188.9185 732
600.43939 189.17659 733
602.73303 189.17659 733
605.02667 189.17659 733
607.32025 189.17659 733
609.61389 189.17659 733
611.90753 189.17659 733
614.20117 189.17659 733
616.49481 189.17659 733
618.78845 189.17659 733
621.92938 189.43468 734
623.37573 189.17659 733
624.8158 188.9185 732
626.24963 188.66043 731
628.53699 188.66043 731
630.82434 188.66043 731
633.11176 188.66043 731
635.39911 188.66043 731
637.68652 188.66043 731
639.97388 188.66043 731
642.26123 188.66043 731
644.54865 188.66043 731
647.72089 188.9185 732
650.01135 188.9185 732
652.30188 188.9185 732
654.59241 188.9185 732
656.88287 188.9185 732
659.1734 188.9185 732
660.5603 188.66043 731
662.84766 188.66043 731
665.13501 188.66043 731
667.42242 188.66043 731
668.79358 188.40233 730
671.07782 188.40233 730
673.36206 188.40233 730
675.64636 188.40233 730
677.9306 188.40233 730
680.21484 188.40233 730
683.43402 188.66043 731
685.72144 188.66043 731
688.00879 188.66043 731
690.2962 188.66043 731
692.58356 188.66043 731
694.87091 188.66043 731
697.15833 188.66043 731
698.48883 188.40233 730
700.77307 188.40233 730
703.05731 188.40233 730
705.34155 188.40233 730
707.62579 188.40233 730
709.91003 188.40233 730
712.19434 188.40233 730
713.49982 188.14424 729
715.78094 188.14424 729
718.06207 188.14424 729
720.3432 188.14424 729
722.62433 188.14424 729
724.9054 188.14424 729
727.18652 188.14424 729
-688.12585 195.36212 750
-687.60773 195.8831 752
-686.16589 196.14359 753
-684.71783 196.40405 754
-683.26349 196.66454 755
-681.8028 196.92503 756
-679.43719 196.92503 756
-677.96722 197.18552 757
-676.49097 197.446 758
-674.11908 197.446 758
-672.63342 197.70647 759
-670.25842 197.70647 759
-667.88348 197.70647 759
-666.38525 197.96695 760
-664.00714 197.96695 760
-661.62903 197.96695 760
-659.25092 197.96695 760
-656.87274 197.96695 760
-654.49463 197.96695 760
-652.11652 197.96695 760
-648.88354 197.70647 759
-646.50854 197.70647 759
-644.13354 197.70647 759
-641.75854 197.70647 759
-639.38354 197.70647 759
-637.84778 197.96695 760
-635.46967 197.96695 760
-632.25861 197.70647 759
-629.88361 197.70647 759
-628.33533 197.96695 760
-625.95721 197.96695 760
-623.57904 197.96695 760
-622.01831 198.22745 761
-618.82281 197.96695 760
-616.4447 197.96695 760
-614.06659 197.96695 760
-612.49335 198.22745 761
-609.31036 197.96695 760
-607.73083 198.22745 761
-605.34955 198.22745 761
-602.96832 198.22745 761
-600.5871 198.22745 761
-598.20581 198.22745 761
-595.82458 198.22745 761
-593.4433 198.22745 761
-591.06207 198.22745 761
-588.68085 198.22745 761
-586.29956 198.22745 761
-583.91833 198.22745 761
-581.53705 198.22745 761
-579.15582 198.22745 761
-576.7746 198.22745 761
-574.39331 198.22745 761
-571.26038 197.96695 760
-568.88226 197.96695 760
-566.50415 197.96695 760
-564.12604 197.96695 760
-562.48706 198.22745 761
-560.10583 198.22745 761
-557.72455 198.22745 761
-555.34332 198.22745 761
-553.68872 198.48793 762
-551.30432 198.48793 762
-548.19958 198.22745 761
-546.53558 198.48793 762
-544.15118 198.48793 762
-541.76678 198.48793 762
-539.38245 198.48793 762
-536.99805 198.48793 762
-535.31525 198.74841 763
-532.92773 198.74841 763
-530.54028 198.74841 763
-528.15277 198.74841 763
-525.07617 198.48793 762
-522.69177 198.48793 762
-520.30737 198.48793 762
-517.92303 198.48793 762
-515.53864 198.48793 762
-513.15424 198.48793 762
-510.76987 198.48793 762
-508.3855 198.48793 762
-506.0011 198.48793 762
-504.27765 198.74841 763
-501.89014 198.74841 763
-499.50262 198.74841 763
-497.11514 198.74841 763
-494.72763 198.74841 763
-492.34012 198.74841 763
-489.95261 198.74841 763
-488.20407 199.00888 764
-485.81345 199.00888 764
-483.42279 199.00888 764
-481.03217 199.00888 764
-478.64151 199.00888 764
-476.25089 199.00888 764
-473.86023 199.00888 764
-471.4696 199.00888 764
-469.07898 199.00888 764
-467.29919 199.26936 765
-464.2977 199.00888 764
-461.90704 199.00888 764
-459.51642 199.00888 764
-457.12576 199.00888 764
-455.33035 199.26936 765
-452.93658 199.26936 765
-450.54282 199.26936 765
-448.14905 199.26936 765
-445.17258 199.00888 764
-443.36151 199.26936 765
-440.96774 199.26936 765
-438.57397 199.26936 765
-436.18021 199.26936 765
-433.78644 199.26936 765
-431.3927 199.26936 765
-428.99893 199.26936 765
-426.60516 199.26936 765
-424.2114 199.26936 765
-421.81763 199.26936 765
-419.97214 199.52986 766
-417.57523 199.52986 766
-415.72037 199.79034 767
-412.78143 199.52986 766
-410.38455 199.52986 766
-407.98764 199.52986 766
-406.12024 199.79034 767
-403.72021 199.79034 767
-401.32019 199.79034 767
-398.92017 199.79034 767
-396.00317 199.52986 766
-393.60626 199.52986 766
-391.20938 199.52986 766
-388.81247 199.52986 766
-386.92004 199.79034 767
-384.52002 199.79034 767
-382.12 199.79034 767
-379.71997 199.79034 767
-377.31992 199.79034 767
-374.43109 199.52986 766
-372.03421 199.52986 766
-369.6373 199.52986 766
-366.76099 199.26936 765
-364.36722 199.26936 765
-361.97345 199.26936 765
-359.10965 199.00888 764
-356.71902 199.00888 764
-353.86459 198.74841 763
-351.47708 198.74841 763
-349.08957 198.74841 763
-346.70206 198.74841 763
-343.86331 198.48793 762
-341.47891 198.48793 762
-339.09454 198.48793 762
-336.71014 198.48793 762
-334.32578 198.48793 762
-331.50577 198.22745 761
-329.12451 198.22745 761
-326.74326 198.22745 761
-323.93579 197.96695 760
-321.55768 197.96695 760
-319.17957 197.96695 760
-316.80142 197.96695 760
-314.83701 198.22745 761
-312.45578 198.22745 761
-310.07452 198.22745 761
-307.28894 197.96695 760
-304.91083 197.96695 760
-302.53271 197.96695 760
-299.75964 197.70647 759
-297.38464 197.70647 759
-295.00964 197.70647 759
-292.63464 197.70647 759
-290.25967 197.70647 759
-287.88467 197.70647 759
-285.50967 197.70647 759
-283.13467 197.70647 759
-280.7597 197.70647 759
-278.3847 197.70647 759
-276.0097 197.70647 759
-273.6347 197.70647 759
-271.25974 197.70647 759
-268.88474 197.70647 759
-266.50974 197.70647 759
-263.78677 197.446 758
-261.41489 197.446 758
-259.04303 197.446 758
-256.67117 197.446 758
-254.2993 197.446 758
-251.92744 197.446 758
-249.55557 197.446 758
-247.18372 197.446 758
-244.81186 197.446 758
-242.43999 197.446 758
-240.06813 197.446 758
-237.69626 197.446 758
-235.01393 197.18552 757
-232.6452 197.18552 757
-230.27646 197.18552 757
-227.90773 197.18552 757
-225.24107 196.92503 756
-222.87547 196.92503 756
-220.50986 196.92503 756
-218.14426 196.92503 756
-216.06406 197.18552 757
-213.69533 197.18552 757
-211.04744 196.92503 756
-208.95786 197.18552 757
-206.58913 197.18552 757
-204.2204 197.18552 757
-201.85167 197.18552 757
-199.48294 197.18552 757
-197.1142 197.18552 757
-194.74547 197.18552 757
-192.1226 196.92503 756
-189.757 196.92503 756
-187.14351 196.66454 755
-184.78104 196.66454 755
-182.41856 196.66454 755
-180.05608 196.66454 755
-177.6936 196.66454 755
-175.33113 196.66454 755
-172.73956 196.40405 754
-170.3802 196.40405 754
-168.02086 196.40405 754
-165.66151 196.40405 754
-163.30217 196.40405 754
-160.94283 196.40405 754
-158.58348 196.40405 754
-156.22414 196.40405 754
-153.86478 196.40405 754
-151.50543 196.40405 754
-149.14609 196.40405 754
-146.78674 196.40405 754
-144.23586 196.14359 753
-141.87964 196.14359 753
-139.33812 195.8831 752
-136.98503 195.8831 752
-134.63194 195.8831 752
-132.45476 196.14359 753
-130.27132 196.40405 754
-128.08162 196.66454 755
-125.71914 196.66454 755
11.244565 195.62262 751
13.55832 195.10164 749
15.902021 195.10164 749
18.221361 194.84117 748
20.589424 195.10164 749
22.902506 194.84117 748
25.243078 194.84117 748
27.620527 195.10164 749
29.964228 195.10164 749
32.30793 195.10164 749
34.605366 194.84117 748
36.945938 194.84117 748
39.28651 194.84117 748
41.57143 194.58069 747
43.908875 194.58069 747
46.246319 194.58069 747
48.6488 194.84117 748
50.921204 194.58069 747
53.329948 194.84117 748
55.670517 194.84117 748
58.011089 194.84117 748
60.351662 194.84117 748
62.692234 194.84117 748
65.032806 194.84117 748
67.373383 194.84117 748
69.713951 194.84117 748
72.05452 194.84117 748
74.395096 194.84117 748
76.735664 194.84117 748
79.076241 194.84117 748
81.307968 194.58069 747
83.645409 194.58069 747
85.982849 194.58069 747
88.320297 194.58069 747
90.657738 194.58069 747
92.995178 194.58069 747
95.205002 194.32021 746
97.539314 194.32021 746
99.873627 194.32021 746
102.20795 194.32021 746
104.40212 194.05971 745
106.73331 194.05971 745
109.06449 194.05971 745
111.39568 194.05971 745
113.72686 194.05971 745
116.05804 194.05971 745
118.38923 194.05971 745
120.72041 194.05971 745
123.0516 194.05971 745
125.38278 194.05971 745
127.71397 194.05971 745
130.04515 194.05971 745
132.37634 194.05971 745
134.70752 194.05971 745
137.03871 194.05971 745
139.18282 193.79922 744
141.51088 193.79922 744
143.83893 193.79922 744
145.97052 193.53876 743
148.29546 193.53876 743
150.82309 193.79922 744
152.9453 193.53876 743
155.4792 193.79922 744
157.80727 193.79922 744
160.13531 193.79922 744
162.46338 193.79922 744
164.79143 193.79922 744
167.11949 193.79922 744
169.44754 193.79922 744
171.7756 193.79922 744
174.10365 193.79922 744
176.4317 193.79922 744
178.75977 193.79922 744
180.84442 193.53876 743
183.16934 193.53876 743
185.49428 193.53876 743
187.8192 193.53876 743
190.14413 193.53876 743
192.46906 193.53876 743
194.53181 193.27827 742
196.85361 193.27827 742
199.1754 193.27827 742
201.76875 193.53876 743
204.09369 193.53876 743
206.14081 193.27827 742
208.4626 193.27827 742
211.06847 193.53876 743
213.39339 193.53876 743
215.71832 193.53876 743
217.7498 193.27827 742
220.07159 193.27827 742
222.39339 193.27827 742
224.71519 193.27827 742
227.03699 193.27827 742
229.04967 193.01779 741
231.36833 193.01779 741
233.687 193.01779 741
236.00566 193.01779 741
238.32434 193.01779 741
240.64301 193.01779 741
242.96167 193.01779 741
245.28033 193.01779 741
247.26488 192.75729 740
249.58041 192.75729 740
251.89595 192.75729 740
254.2115 192.75729 740
256.87369 193.01779 741
259.19235 193.01779 741
261.15811 192.75729 740
263.82968 193.01779 741
266.14835 193.01779 741
268.46701 193.01779 741
270.78571 193.01779 741
273.10437 193.01779 741
275.42303 193.01779 741
277.7417 193.01779 741
279.68243 192.75729 740
282.37903 193.01779 741
284.69769 193.01779 741
287.01636 193.01779 741
289.33505 193.01779 741
291.65372 193.01779 741
293.97238 193.01779 741
296.29105 193.01779 741
298.60971 193.01779 741
300.52228 192.75729 740
302.83783 192.75729 740
305.15335 192.75729 740
307.4689 192.75729 740
309.36578 192.49681 739
311.67819 192.49681 739
313.99063 192.49681 739
316.30304 192.49681 739
318.1843 192.23634 738
320.49359 192.23634 738
322.80286 192.23634 738
325.11215 192.23634 738
327.42142 192.23634 738
329.73071 192.23634 738
332.03998 192.23634 738
334.80231 192.49681 739
337.11472 192.49681 739
339.42712 192.49681 739
341.27713 192.23634 738
343.5864 192.23634 738
345.89569 192.23634 738
348.20496 192.23634 738
350.51425 192.23634 738
352.82352 192.23634 738
355.13281 192.23634 738
357.44208 192.23634 738
359.75137 192.23634 738
362.06064 192.23634 738
364.36993 192.23634 738
366.6792 192.23634 738
368.98849 192.23634 738
370.79465 191.97586 737
373.1008 191.97586 737
375.40695 191.97586 737
377.7131 191.97586 737
380.01926 191.97586 737
382.84418 192.23634 738
384.63156 191.97586 737
386.93771 191.97586 737
389.24387 191.97586 737
391.55002 191.97586 737
393.85617 191.97586 737
395.62479 191.71538 736
397.92783 191.71538 736
400.23083 191.71538 736
402.53387 191.71538 736
404.83688 191.71538 736
407.13989 191.71538 736
409.44293 191.71538 736
411.74594 191.71538 736
414.04898 191.71538 736
416.35199 191.71538 736
