ply
format ascii 1.0
comment PCL generated
element vertex 1709
property float x
property float y
property float z
element face 0
element camera 0
property float view_px
property float view_py
property float view_pz
property float x_axisx
property float x_axisy
property float x_axisz
property float y_axisx
property float y_axisy
property float y_axisz
property float z_axisx
property float z_axisy
property float z_axisz
property float focal
property float scalex
property float scaley
property float centerx
property float centery
property int viewportx
property int viewporty
property float k1
property float k2
end_header
43.512001 -19.303999 -63.170002
24.99 12.373 -36.967999
43.466003 -19.511999 -60.389999
33.980999 6.585 -13.395
44.821999 -16.181999 -61.355999
26.861 11.049 -35.098999
46.327999 -11.893001 -69.833
45.577999 -14.092 -67.588005
32.742001 6.9109998 -38.364002
17.883999 18.444 -53.182999
32.662998 7.3540001 -11.399
33.365002 6.5479999 -35.101997
32.703999 7.289 -9.9590006
18.869999 17.603001 -51.456001
33.220001 7.0440001 -10.941
34.137001 6.1150002 -31.842001
45.901001 -13.379 -64.318001
35.811001 5.3110003 -11.032001
34.529999 6.1889997 -9.9530001
36.628002 4.2659998 -33.764999
44.955002 -15.759001 -64.685005
33.128998 7.0099998 -6.7750001
18.948 17.296 -49.573997
31.585001 7.7869997 -32.437
33.130001 6.9900002 -6.0370002
33.216 6.9390001 -5.572
15.018999 19.317999 -48.207001
34.646999 6.0609999 -8.3640003
18.487001 17.316 -47.600002
46.624001 -11.284 -66.572998
34.744999 5.9509997 -6.4170003
46.829998 -10.806 -63.621998
47.130001 -9.1890001 -65.673004
37.444 3.822 -30.947001
47.262001 -8.3550005 -62.524998
47.256001 -8.5859995 -63.702003
20.959 16.013 -49.346001
47.144001 -8.6709995 -67.769997
47.150002 -8.2040005 -66.284004
47.155998 -7.9910002 -64.658997
31.624998 7.9889994 -8.6589994
32.676998 7.2860003 -9.3170004
39.887001 -27.148001 -55.148003
19.052 16.734001 -45.291
21.438002 15.29 -45.604
33.723 6.6530004 -22.942999
33.163998 7.0240002 -8.7090006
32.990002 7.0840001 -7.7880001
15.49 19.35 -50.556999
32.037998 7.7249999 -8.3670006
16.535002 18.886 -51.104
27.57 10.546 -31.060001
30.875999 8.3970003 -8.0739994
15.78 19.09 -49.806
16.722 18.478001 -49.091
32.069 7.6199999 -6.8540001
41.5 -23.793001 -56.724998
41.921001 -22.970001 -58.874001
40.995998 -24.729 -54.903999
42.580002 -21.499001 -57.390999
38.556999 2.2060001 -8.2119999
24.272001 14.019 -51.375
25.363001 12.985001 -49.663998
39.174999 -28.096001 -51.825001
25.226 12.117001 -32.597
38 3.188 -6.5100002
23.466 14.04 -46.821999
40.41 -25.455 -51.964993
23.375999 13.251 -27.910999
22.453999 13.871 -28.552999
22.802999 13.495 -26.973
24.528 12.523 -26.785999
25.32 12.038 -29.353001
28.922998 9.6659994 -27.718
41.926998 -22.215 -52.361
26.681 11.143 -26.683001
27.837999 10.401999 -24.080999
23.356001 13.305 -30.781
43.77 -18.737999 -57.723999
23.755001 13 -28.799999
22.993 13.51 -28.780001
43.124001 -20.141001 -55.349998
31.766001 7.7470002 -29.226
40.743999 -1.054 -0.43200001
43.848999 -18.371 -55.924999
22.182001 15.045 -47.910999
39.681999 1.4009999 1.164
26.379 12.026 -47.655998
32.331001 8.4570007 -55.431999
39.448997 1.747 3.2279999
33.34 7.5120001 -54.515999
36.897999 4.0640001 2.688
30.384001 9.5539999 -52.870003
40.389999 0.66299999 4.914
38.359001 2.8840001 1.4959999
28.722 10.472 -50.59
32.024998 7.4229999 8.4530001
15.42 18.979 -46.938
13.178 20.050001 -46.306
14.667 19.281 -46.098999
17.116001 17.838999 -44.98
15.636999 18.713999 -45.412998
14.509 19.255999 -45.207001
36.253002 4.3990002 6.1859999
13.309 19.806999 -44.704998
13.577999 19.607 -43.958
15.475 18.656 -44.247002
16.423 18.161001 -44.254002
38.371998 2.756 5.3959999
16.219999 18.230001 -43.572998
16.992001 17.816999 -43.297001
18.157 17.046001 -42.569
37.558998 3.3370001 7.7909999
32.591999 7.1609998 7.723
14.855 18.844999 -42.854
14.188 19.044001 -40.977001
15.673 18.336 -41.977001
34.809998 5.4070001 8.8439999
14.208 19.264999 -43.643002
13.398 19.610001 -42.879997
13.926001 19.247999 -41.951
33.431999 6.4039998 10.927
32.334 7.2090001 9.7309999
32.442001 7.0780001 10.794
12.027 20.086 -40.389
14.136 18.99 -39.707001
36.597 4.0040002 10.556001
17.008999 17.674 -42.073997
16.584999 17.780001 -40.861
38.714001 2.2440002 10.294
35.110001 5.1279998 11.82
15.906 18.085999 -40.226002
16.089001 17.938999 -39.503998
38.549 2.2609999 12.832
41.146999 -12.068 4.3400002
42.337002 -9.4040003 5.52
19.499001 16.114 -40.851997
14.447 18.743999 -38.562
11.754 20.02 -38.028999
41.393002 -7.105 1.6029999
16.138 17.781 -37.510998
14.691 18.542 -37.330002
11.207001 20.075001 -33.799
43.527 -10.182 8.7609997
11.099001 20.022999 -31.282
43.118999 -5.0339999 6.8169999
15.222 17.957001 -30.526999
14.156 18.402 -26.751001
43.428001 -5.204 7.8470001
43.785 -5.0090003 9.4250002
12.985001 19.043001 -29.689001
43.926003 -7.4490004 8.8600006
44.121998 -6.0310001 9.9520006
9.4879999 20.633001 -27.296
44.639 -8.2010002 11.203
41.313999 -4.177 -0.029999999
5.809 22.149 -25.74
41.538002 -2.8410001 1.602
11.095 19.924 -28.332001
42.652 -5.9200001 4.9829998
41.973999 -4.0930004 2.628
12.521 19.140999 -26.651001
41.915001 -3.023 3.2250001
10.292 20.216 -25.486
42.396 -3.7140002 4.711
41.848999 -1.8759999 4.9899998
40.899998 -0.40799999 2.8329999
21.014 14.669001 -25.372
19.830999 15.295 -24.681
16.122 17.456001 -29.473
15.195 17.898001 -28.370001
18.76 15.954999 -28.768999
41.338001 -0.41800001 6.908
17.411999 16.757 -28.224001
17.905001 16.480001 -27.51
42.769001 -4.4769998 5.7549996
42.749001 -3.3610001 7.0209999
16.567999 17.101999 -26.560999
18.030001 16.330999 -26.630999
18.564001 15.984 -25.546
18.164 16.221001 -25.121
19.859999 15.327 -28.268
19.099001 15.698999 -27.404999
19.645 15.402 -26.344
20.421 15.055 -27.070002
21.448999 14.408 -26.945
21.211 14.596001 -27.939999
20.676001 14.888 -26.272999
44.442001 -6.4029999 11.101
16.309 17.101999 -22.779001
17.948999 16.373999 -23.249001
19.120001 15.672 -22.982
20.127001 15.107 -23.546999
44.514999 -13.193 13.723
44.574001 -11.287 12.353001
17.940001 16.448 -22.149
20.236 14.914001 -21.761
19.996 15.107 -22.309
19.347 15.488 -20.293999
45.239002 -8.6599998 13.622
19.246 15.577 -21.024
15.517 17.67 -24.635
17.212999 16.713001 -24.821001
18.462 15.95 -23.977001
44.688999 -6.4029999 12.254
45.449997 -7.5619998 15.247001
45.543999 -10.596 15.559
45.742001 -9.0019999 16.252001
5.5310001 22.225 -23.914
45.896999 -8.2109995 17.686001
45.98 -11.132 18.295
46.053997 -8.7959995 18.379
12.207 19.279999 -24.371
13.732 18.546 -23.189001
44.838997 -5.1219997 16.177
10.204 20.264999 -22.618999
45.112 -6.6560001 14.085999
44.213001 -4.1339998 14.299
11.93 19.351999 -20.528
45.639 -7.4790001 16.649
44.876999 -4.9239998 18.208
9.7470007 20.386 -19.341999
10.627 19.928999 -17.015001
7.0320001 21.707001 -22.316999
40.515999 0.59499997 9.7799997
42.015999 -1.175 9.2399998
8.3140001 21.036999 -20.857
6.842 21.748999 -19.530001
43.661999 -3.7509999 10.978999
14.994 17.825001 -21.444
39.584 1.5630001 7.513
15.872 17.349998 -19.153999
17.9 16.375999 -20.775
18.526999 16.030001 -20.476
18.631001 15.849 -19.42
41.736 -0.71200001 12.019
17.045 16.668999 -18.881001
43.170002 -2.3559999 13.764999
18.008999 16.205999 -18.806999
18.372 15.969001 -18.077
18.584 15.905001 -17.037001
41.264 -0.37 14.985
13.704 18.499001 -19.832001
12.214001 19.173 -18.26
14.573999 17.986 -16.903999
39.825996 1.153 12.033999
12.353001 19.096001 -16.132
31.096001 8.2229996 -5.3249998
32.287003 7.4840002 -5.4040003
30.358 8.6380005 -4.4289999
17.205999 16.648001 -16.388
31.226 8.151 -4.4959998
30.595001 8.4639997 -2.2249999
30.933001 8.2980003 -3.484
31.493 7.9370003 -1.745
15.798 17.353001 -13.876
18.361 15.95 -14.117
32.923 7.0669999 -4.5960002
34.387997 6.1079998 -3.74
32.812 7.0960002 -3.513
33.735001 6.4900002 -2.1039999
31.114 8.1660004 -6.2049999
32.123001 7.7320004 -18.459
29.037001 9.4109993 -1.12
28.922001 9.7470007 -17.309
28.922001 9.4809999 0.28999999
30.535 8.4549999 -0.40900001
29.998999 8.79 0.17299999
31.077 8.2069998 0.49599999
30.871 8.2740002 0.95700002
30.278999 8.5950003 1.622
32.024998 7.8109999 -16.039999
34.226002 6.02 1.4499999
32.802998 7.0609999 -2.1299999
22.172001 13.912 -26.311998
32.156002 7.4400001 -1.215
33.722 6.4519997 -0.27599999
23.301001 13.254 -25.565001
31.938002 7.671 0.69599998
21.813 14.153 -25.025002
22.232 13.917 -24.258001
20.82 14.758 -24.009001
21.417999 14.451 -23.472
32.747002 7.0310001 3.1270001
22.988001 13.486 -23.712999
36.403999 4.8039999 -5.2329998
39.088001 2.02 -1.268
38.319 2.934 -3.835
37.407001 3.812 -0.95600003
25.094 12.155 -23.834
35.969002 4.928 -1.774
21.904999 14.216001 -22.894001
21.316 14.415 -21.316999
34.942001 5.4549999 3.237
21.880001 14.172 -22.110001
22.907 13.493 -21.072001
23.669998 13.107 -19.538
20.322001 14.888 -20.955
28.771 9.552 1.742
20.757 14.759001 -20.34
28.174 9.8929996 2.3
27.610001 10.443 2.184
22.191999 13.92 -21.072001
22.668001 13.686001 -19.604
24.055 12.763 -20.846001
25.793999 11.712 -22.07
23.405001 13.24 -22.007
24.823 12.299999 -20.269999
29.854 8.8109999 3.3539999
28.482 9.6129999 4.5690002
26.896999 11.009 -19.055
25.541 11.891 -19.612
28.929998 9.4040003 2.6570001
27.525 10.419 3.4519999
28.812 9.4160004 4.0660009
24.870001 12.224 -17.888
31.612001 7.9030004 2.2360001
24.441 12.488 -18.561001
25.570999 11.877999 -18.367001
30.698 8.2599993 2.8099999
32.056999 7.6139998 4.4820004
28.814999 9.7979994 -21.82
31.889 7.658 3.579
31.316999 8.1829996 -21.968
31.226 7.9400001 4.8929996
30.614 8.2609997 4.3429999
33.535 6.4440002 4.8010001
31.927 7.6270003 5.5910001
29.497999 9.3850002 -19.25
28.423 9.6759996 5.4379992
27.058001 10.707999 7.2470002
27.797001 10.183 7.3319998
22.945 13.375 -12.065
23.802 12.867 -12.762
24.512001 12.44 -12.83
28.761 9.4400005 9.8389997
26.279001 11.26 7.256
29.327999 9.1300001 6.6760001
30.907999 8.0760002 6.717
29.472 9.4069996 -15.62
31.853001 7.5879998 6.7449999
31.65 7.6750002 7.677
30.379 8.6279993 8.3370008
31.014999 8.0710001 8.533
29.243999 9.1750002 8.8379993
29.704 8.9289999 8.2019997
27.358 10.716 -15.289001
30.315001 8.6479998 9.3010006
31.388 7.744 8.8569994
33.969002 6.0700002 6.382
31.599001 8.0700006 -13.54
30.214001 8.875 -11.535
31.858002 7.8260002 -11.666
29.907 8.9800005 -10.146001
30.763 8.4709997 -11.316
29.286999 9.5439997 -13.379
29.574999 9.2930002 -11.005
25.515999 11.842 -13.872001
25.962999 11.517 -11.362
25.159 12.049 -11.99
27.377001 10.668 -12.401999
26.569 11.186 -10.665
27.229 10.77 -10.606
24.769999 12.263 -9.5679998
30.707001 8.4969997 -10.188001
30.926001 8.3689995 -9.5180006
28.566 9.8850002 -11.021999
28.945999 9.7369995 -10.460999
28.178999 10.045 -9.1190004
27.674 10.492 -9.8889999
28.994999 9.5570002 -8.4300003
-21.606001 -19.044001 6.2799997
-43.805 3.2279999 47.106998
-33.292 -12.204 51.968998
-24.899 -16.649 30.411999
-21.413 -19.108 10.188001
-20.799999 -19.490999 8.1129999
-25.225 -16.440001 33.227001
-23.289001 -17.672001 32.387001
-27.716 -14.872 33.395
-30.132 -15.535 56.357998
-31.532999 -14.221 55.913002
-20.039 -19.890999 12.587
-41.448002 -6.4119997 -3.1000001
-33.337997 -12.164001 55.309002
-42.635998 -3.849 -3.428
-41.702999 -6.1010003 -1.582
-21.050001 -19.228001 14.892
-32.222 -12.411 57.626003
-43.147999 -2.7920001 -1.274
-44.149998 5.2950001 45.809002
-42.603001 -4.6600003 -0.073000006
-25.423 -16.638 15.772
-34.722 -10.926 54.044003
-27.325001 -15.566 10.278
-36.216 -8.8940001 54.612
-35.434998 -9.6549997 55.193001
-43.767002 -2.253 2.1619999
-43.244999 -3.8709998 2.6630001
-34.974003 -9.9440002 55.783997
-43.157997 8.3769999 46.401001
-30.236 -13.727 14.127999
-43.885998 -3.1359999 5.2550001
-44.748001 -1.307 6.098
-42.617001 6.0229998 48.408001
-34.364998 -10.153999 56.708
-25.033998 -16.890001 13.72
-41.191998 9.0950003 49.632
-27.845001 -15.212 14.087
-35.749001 -8.3739996 56.271
-45.010998 -1.742 9.0579996
-45.848999 0.48199999 9.4790001
-33.450001 -10.870999 57.424
-27.226 -15.511 17.434999
-40.604 2.5569999 52.554001
-42.716 -1.512 -5.3110003
-31.605001 -11.856 59.397999
-41.106998 6.0089998 50.944
-31.580002 -12.83 15.794
-43.122002 -1.562 -2.8069999
-42.443001 0.53000003 -5.1129999
-28.255001 -14.929 16.169001
-35.237 -7.1459999 58.181999
-39.462002 9.5439997 52.043999
-30.636 -13.308 18.146999
-41.473 4.7320004 -5.5840001
-22.5 -18.375 12.900001
-23.155001 -18.008999 15.301001
-43.689999 -0.78499997 0.168
-42.920002 1.3790001 -1.899
-39.992001 -6.263 47.814999
-32.760002 -11.256 58.195
-33.776001 -9.0780001 58.864002
-23.791 -17.554001 17.775999
-43.781002 1.507 1.538
-19.612 -20.086 15.371
-42.316998 3.3670001 -2.78
-41.115997 -4.756 47.93
-38.268002 -7.9589996 49.333
-32.361 -9.7780008 60.189003
-39.995998 -5.8759999 49.466
-21.973001 -18.665998 17.463001
-31.174 -9.8959999 61.507999
-40.598999 6.6650004 -7.8929996
-33.241997 -7.5559998 60.323997
-40.937 7.059 -4.5619998
-39.647003 -5.8769999 50.647999
-25.799 -16.306999 19.121
-23.834 -17.459999 20.137999
-40.017002 8.7090006 -7.0380001
-40.881001 -4.02 50.096001
-42.028999 -2.0709999 49.237003
-19.855 -19.952 18.6
-41.431999 6.9229999 -2.204
-39.335999 -5.0910001 52.625999
-21.101999 -19.161001 19.955999
-21.695 -18.773001 21.817001
-40.956001 8.8889999 -1.288
-40.205002 9.3109999 -4.2329998
-47.837997 9.2299995 24.341
-40.676998 -2.7449999 51.731003
-38.931999 11.951 -5.8690004
-40.258999 10.839999 -1.188
-38.110001 -8.4429998 16.035
-38.104 -6.257 54.037003
-39.021999 -7.5969996 18.453001
-44.368999 -0.67799997 3.513
-44.653 1.5320001 4.3589997
-46.993 11.603 22.063
-42.961002 3.8 0.36199999
-34.347 -10.863 20.912001
-35.142002 -10.426 18.011
-43.299999 5.4569998 2.951
-47.021 11.709 24.738001
-45.416 0.67199999 7.191
-37.282001 -8.9049997 18.753
-40.299999 -6.4530001 21.091
-45.003002 3.1069999 6.1610003
-48.117001 7.8629999 27.388
-47.550999 10.132 26.915001
-38.481998 -7.8509998 22.041
-45.970001 2.7179999 8.8039999
-45.655998 5.6129999 9.0770006
-36.103001 -9.6519995 20.785
-38.824001 -3.7150002 54.641003
-45.937 14.333 23.549
-44.248997 6.3789997 6.198
-45.611 14.925 20.202999
-34.906998 -10.394 23.187
-42.061001 6.5290003 -0.12800001
-37.900002 -1.849 56.389999
-41.641998 8.9499998 1.289
-44.814003 -2.5279999 12.165
-43.533001 -3.9920001 13.335
-40.862003 -0.546 52.246998
-39.125999 13.257 -1.6850001
-43.487999 19.605999 21.167999
-40.757 12.057 2.1159999
-39.142002 14.384 0.47299999
-40.104 -6.901 16.384001
-44.518002 17.506001 23.534
-42.646999 9.2580004 4.5170002
-43.140003 -4.2289996 15.348001
-39.577 -1.158 54.232998
-43.264 20.242001 23.072001
-42.433002 11.519 5.8870001
-44.567997 -2.812 10.994
-45.442001 -1.742 14.313001
-45.602001 -1.5780001 16.169001
-44.466999 -2.8959999 14.997
-43.467999 -3.187 30.557999
-44.929001 -1.681 30.262001
-46.062 -0.86899996 17.358
-45.646 -1.161 11.97
-44.818001 -1.679 33.139999
-45.054001 -2.073 18.588999
-41.469002 -5.7279997 16.732
-46.629997 0.60799998 13.894
-37.34 3.0110002 56.547001
-42.936001 -4.2920003 18.140999
-46.466 0.97100002 12.033
-41.854 -5.2020001 19.677999
-41.112999 -5.441 29.708
-36.717003 -0.79800004 57.643002
-46.052002 -0.79999995 15.181999
-43.101002 -3.664 27.822001
-46.622997 0.163 16.826
-47.495998 3.881 15.119
-47.472 2.233 17.550001
-37.444 -4.5030003 56.375
-47.719002 2.546 19.855
-39.994007 -6.5640001 24.153999
-36.026001 -4.3100004 58.219002
-39.108997 -7 32.977001
-37.064999 -8.8540001 23.247
-38.329998 -7.8490005 24.603001
-48.23 5.3559999 20.853001
-34.908001 -2.665 59.486
-46.502003 3.6239998 10.587
-33.438 -4.7050004 60.750999
-39.523003 -6.8299999 27.364
-43.595001 -3.277 25.985001
-41.076 -5.5880003 25.591999
-31.403002 -7.0190001 62.162003
-39.637001 -6.5609999 35.951
-44.344997 8.6300001 7.9229994
-41.479 -5.006 31.927999
-45.377003 8.7299995 10.495
-41.603001 -5.0599999 27.65
-37.811996 -8.1560001 27.058001
-43.554001 -3.0149999 34.628998
-47.129002 3.494 13.167001
-47.257999 6.0079999 14.499001
-33.388 -2.1730001 60.839001
-39.190002 -6.9920001 30.605999
-46.622997 6.4219999 12.412001
-45.667999 10.076 12.537
-35.785999 1.033 58.432999
-46.231998 -0.60000002 18.58
-46.698997 9.0880003 15.207
-44.994999 -2.029 20.6
-41.051998 -5.3740001 34.331001
-46.604 0.013 21.257
-44.025997 12.013 9.8149996
-43.542999 -3.5150001 21.073
-41.903 -4.9889998 23.129
-34.285 2.848 59.650002
-33.987 -0.030999999 60.221001
-46.691002 0.37600002 26.589001
-46.667 0.048999999 19.518
-32.485001 1.874 61.326
-46.890003 0.847 28.476
-46.666 0.152 22.131001
-46.801998 0.419 23.254
-45.391998 -1.5539999 22.318001
-31.543001 -2.2809999 62.354
-46.663002 0.255 24.376999
-45.232002 11.939 13.116
-44.231003 13.742 12.037
-47.363998 1.4680001 24.833
-42.906998 15.509 10.548
-43.768997 -3.141 23.784
-44.948997 -1.817 27.783001
-45.297001 -1.53 24.711
-47.861 5.3629999 17.190001
-45.945 -0.45899999 30.107
-47.508007 1.691 22.159
-48.152 3.888 23.589001
-48 3.4419999 27.136
-47.796001 7.4180002 18.667999
-27.919001 -14.97 19.796999
-46.015999 11.218 15.098
-46.773998 10.157001 16.963999
-48.341999 5.6880002 26.071999
-28.743 -14.349 23.271
-38.750999 5.5640001 54.359001
-32.368999 -12.162 20.571999
-29.950001 -13.694 20.400999
-33.105 -11.766 17.946999
-47.230999 1.6420001 29.909
-48.218002 7.1279998 22.479
-32.304001 -12.113999 23.149
-47.527 9.1310005 19.694
-46.165001 12.635 18.125999
-30.6 -13.202001 22.799
-47.612999 9.6140003 22.171
-46.502003 0.419 30.811001
-46.389999 0.39500001 32.366997
-47.269001 1.925 31.466
-44.835003 13.957999 14.18
-44.922001 14.699 15.679
-46.091 0.090000004 33.869999
-36.035 5.8179998 57.396999
-47.625 4.1329999 33.792
-43.271 17.276001 14.04
-26.280998 -15.886 22.455
-44.716999 15.977001 17.302999
-48.147999 4.652 29.466999
-43.572998 18.327 17.25
-24.040001 -17.286999 22.252998
-47.974003 5.329 31.664
-21.237999 -19.022999 23.528
-24.545 -16.938999 24.653
-47.995998 7.296 30.473999
-45.792999 -0.25 35.062
-45.113003 -1.189 35.173
-45.703003 -0.20300001 36.5
-25.688 -16.174999 27.421
-44.368 17.581999 20.194
-26.999001 -15.395 24.874001
-31.945999 -13.012 4.3169999
-29.282 -13.937 25.366001
-23.244999 -17.686001 26.900002
-21.761 -18.68 25.807001
-36.118999 8.2659998 56.635998
-31.472002 -13.203 6.4879999
-40.607002 -5.737 40.257
-30.216 -14.034 5.0499997
-23.899 -17.288 28.542999
-42.343002 -4.1350002 36.571999
-29.864 -14.073999 7.5539999
-32.334 -12.64 8.5159998
-33.002998 -11.575999 24.910999
-33.266998 -11.335999 27.51
-45.219002 -0.87900001 37.117001
-40.313999 -7.7669997 0.294
-30.844999 -12.950001 26.452999
-41.576 -4.8590002 38.632
-44.068001 -2.2920001 38.251007
-45.236 -0.616 38.532001
-44.635002 -1.4680001 39.471001
-30.997 -12.79 28.886
-34.719002 -11.431 2.105
-35.993999 -9.5910006 25.394001
-37.314999 -9.6310005 4.9829998
-38.407001 -9.0240002 2.283
-40.669003 -7.5190001 -1.9189999
-35.361 -9.9069996 27.933001
-41.822002 -6.0209999 -0.0099999998
-40.944 -7.085 2.687
-35.252998 -9.9219999 30.559999
-43.148998 -3.279 39.999001
-37.501999 -8.2889996 30.733
-41.538998 -6.441 5.125
-30.813 -12.882 31.259001
-39.568001 -8.1019993 3.9300001
-32.687 -11.655 31.093
-44.771999 10.443 41.478001
-32.233002 -11.912001 34.495998
-34.288002 -10.539 32.745998
-28.394001 -14.486 27.637999
-43.756001 -2.3139999 42.27
-28.015999 -14.681001 29.929998
-42.146 -5.6039996 0.98200005
-42.387001 -5.3200002 2.2150002
-42.766998 -4.8530002 3.638
-44.313 -1.7229999 40.806
-43.528999 12.47 43.076
-44.597 12.696 39.952999
-26.807001 -15.439 31.619999
-29.856001 -13.469001 32.855999
-33.27 -12.156 6.553
-42.169003 -4.2220001 43.120998
-34.540001 -11.424001 4.71
-43.465 -2.4260001 43.634003
-43.09 -2.7030001 44.633999
-28.425001 -14.46 35.458
-43.494999 15.043 40.807003
-46.608002 1.105 34.305
-46.721001 2.2150002 36.639
-28.825001 -14.235 38.141003
-35.454002 -10.607 9.632
-26.346001 -15.821 36.192997
-31.135 -13.227 11.471
-27.138 -15.413 39.306
-25.683001 -16.294001 37.633003
-25.584999 -16.43 39.537998
-37.138 -9.2230005 13.529
-32.864998 -11.602 40.006001
-47.433998 4.9910002 35.587002
-30.557999 -13.229 41.223
-29.914 -13.570001 39.294003
-34.459999 -11.114 11.903
-41.870003 14.051 45.508999
-42.771999 11.16 45.667
-32.683998 -12.226001 12.998
-34.319 -11.145 14.888
-36.258999 -9.7220001 16.152
-28.549 -14.662001 42.327999
-42.737 -4.9970002 4.763
-42.821999 14.521 43.006001
-47.586998 6.9050002 33.965
-42.683998 -5.1750002 8.0150003
-39.978001 -7.5440001 7.3839998
-34.435997 -10.668 43.744999
-36.368 -9.1879997 42.720001
-40.878002 16.684999 45.115002
-37.417999 -9.3730001 7.9349995
-46.036003 1.234 38.844002
-35.140999 -10.273 45.843002
-35.785 -9.967 47.832001
-43.049999 -4.665 6.0760002
-43.716 -3.6889999 7.079
-42.658001 -5.105 9.842
-32.208 -12.241 43.709
-44.231998 -3.158 9.2729998
-42.583 -4.9379997 12.404
-40.697998 -6.7529998 10.188001
-26.836 -16.216 47.224998
-42.860001 17.563 39.252003
-30.153 -13.805 45.464001
-46.737 3.9160001 38.436001
-41.087002 -6.2000003 13.403
-39.475002 -7.4490004 13.764
-29.135 -14.846 49.405998
-46.881001 6.5999999 37.668999
-41.099998 21.853001 37.441002
-34.014 -11.358001 48.777
-38.174 -8.7119999 9.7230005
-38.920002 -8.0340004 11.477
-27.154001 -15.842 4.1550002
-45.799 1.931 40.944
-28.509001 -15.044 5.6570001
-31.497002 -13.231 49.642998
-39.050999 22.858 41.434002
-24.376999 -17.417 5.6079998
-36.864002 -8.7460003 33.105999
-24.793001 -17.181 8.1430006
-38.660999 -7.0250001 51.493999
-23.267 -18.051001 7.573
-26.135 -16.396999 5.6679997
-36.632 -9.2820005 52.324001
-41.326 19.514 40.716
-38.000999 -7.5210004 52.402
-28.487001 -15.014999 8.4159994
-37.235001 -8.1719999 53.328999
-37.022999 -7.0620003 55.351997
-39.236 17.67 47.143002
-30.070999 -13.984 9.8519993
-30.027 -14.585999 53.328999
-26.448 -16.157999 8.0899992
-34.722 -10.239 34.809002
-25.282999 -16.785999 10.002999
-31.856998 -13.391 53.070999
-39.847 20.223 43.274002
-28.234999 -14.96 12.135
-25.821001 -16.411999 12.092
-23.823 -17.612999 11.311
-36.493 -9.5220003 49.653999
-17.261 -21.615 9.0100002
-34.782997 -10.987 51.903
-37.159 -8.4579992 36.488998
-18.379999 -20.934 10.718
-38.400002 22.243 43.753002
-35.162003 -9.9609995 39.34
-40.615997 12.357 48.918999
-30.556999 -13.072 35.907997
-32.884003 -11.512 37.493999
-39.629002 15.084001 48.698002
-38.254997 -7.6480002 39.743
-39.303001 -6.822 38.330997
-37.292999 15.344999 51.910007
-39.486 -6.743 41.945
-37.987999 19.775999 47.250999
-37.626999 17.859001 49.534
-39.18 -7.099 44.245998
-36.267998 21.392 48.376003
-41.138 -5.1960001 45.717003
-36.917 22.668001 45.949001
-38.562 -7.6950002 46.410004
-35.104 24.348 46.948997
-38.452 11.921 52.404003
-47.669998 9.125 30.003
-47.123997 11.174 29.049999
-37.060997 10.361 54.816002
-46.777 11.713 31.094999
-46.577 12.66 27.862
-45.846001 14.422 26.471001
-45.015999 16.34 26.094
-44.056999 18.4 27.454
-35.813 17.248999 52.519001
-35.874001 13.485 54.77
-43.219997 20.305 25.732
-32.888 14.192 57.493
-47.463997 8.5929995 32.903
-33.507 16.472 55.605003
-47.077 8.2959995 35.48
-46.403999 11.729 33.900002
-35.363998 20.448999 50.560001
-33.975002 24.079 48.951
-45.919998 13.978 31.539999
-45.263 14.947 33.923
-33.59 19.381001 53.608997
-46.404999 10.283 36.219002
-45.981003 9.3959999 38.740002
-45.524998 11.971 37.625999
-30.132 21.038 55.896999
-33.169003 22.761 51.264
-44.709 14.759999 37.053997
-31.936001 21.245001 53.945
-45.271 15.664001 29.688
-44.328999 17.74 29.552999
-30.140999 24.764999 52.829998
-42.973999 20.799999 29.337
-33.008003 6.9369998 60.033001
-44.720001 16.720001 32.348
-43.552998 19.367001 31.250998
-43.653999 17.888 35.674999
-30.26 5.1420002 62.625996
-41.875 22.414001 32.115002
-42.394001 20.738001 34.68
-31.165001 9.0500002 60.991001
-42.275997 -3.536 46.259998
-33.900997 11.269 57.91
-44.888 -0.056000002 42.265999
-28.247 9.4849997 63.088997
-28.893 13.037 61.306
-43.892998 -1.22 44.296997
-26.922001 12.425 62.933998
-43.003002 -1.577 46.955002
-30.486 14.358 59.484001
-44.342999 0.81599998 45.102997
-43.387001 0.54899997 47.538002
-31.145 17.41 57.328999
-42.423 -0.0090000005 49.429001
-42.885002 2.5710001 48.895
-41.886002 3.2450001 50.459999
-46.046001 4.9649997 41.232998
-28.164 16.622 60.198002
-45.983002 7.7519999 40.026001
-23.338999 19.068001 62.068001
-45.352001 2.9790001 43.334999
-25.785 19.564999 60.256001
-29.605999 19.341999 57.480999
-26.498999 22.753 57.681999
-45.001999 7.8779998 42.628002
-27.732 20.098001 58.533001
-44.474998 6.993 44.347
-44.008999 9.7399998 43.853001
-23.938 21.501999 60.291
40.801998 -23.542999 37.078999
-7.5289998 -29.739 62.045002
-9.75 -27.185001 60.322998
-19.509998 -0.96600002 87.033005
-17.267 -1.788 87.305
-6.5650001 -26.740999 16.790001
-8.0139999 -28.214001 60.400002
-16.59 -5.2690001 87.263
41.002998 -22.077999 39.014999
-6.0609999 -29.219999 60.329998
-13.37 -23.653 22.690001
-14.602 -5.0159998 87.307999
-5.1259999 -30.483 61.856998
-8.4570007 -26.857 57.228001
-7.395 -27.241999 58.929001
-15.525001 -22.487 21.450001
-20.598 -0.62900001 86.314003
-15.049999 -0.103 87.252998
-26.335999 -17.697001 56.709
-14.558 -2.747 87.459
44.989998 -16.312 28.341999
-12.679001 -24.026001 19.202999
-24.345999 -18.856001 57.410999
45.793999 -14.256 27.042999
-24.719999 -20.136 58.984997
45.774002 -14.232 28.09
-26.464001 -19.008999 58.878002
-27.615 -17.960999 59.008999
46.034 -13.317 28.268
-27.248001 -17.955999 59.667
-28.284 -17.181 58.841
46.087997 -13.039001 28.749001
-26.584 -18.301001 60.334
-26.108 -18.660999 60.580002
-19.598 0.25400001 86.971001
46.493999 -11.495 26.102999
-27.309 -16.593 60.986
-25.955999 -17.583 61.82
-10.172 -25.229 21.347
46.276001 -11.879 29.526999
46.475998 -11.211 28.056
-6.8640003 -26.598001 22.632
-6.895 -26.598001 19.964001
-17.970999 0.41299999 87.413994
-20.611 2.5530002 85.375999
-19.476 1.88 86.938004
-19.278 3.4860001 86.870995
-18.185999 2.4129999 87.298996
-6.6479998 -26.657 27.070002
-11.162 -24.757 25.004
-14.785 1.5389999 87.237999
-13.12 1.487 88.446999
43.318001 -19.972 33.132999
-13.7 -23.48 25.296999
-12.875 -5.092 88.587997
-21.204 -20.615 57.986
44.078999 -18.283001 32.198002
-19.377001 -21.997 59.083
44.169998 -18.26 29.854
44.992001 -15.724 32.215
-22.463999 -21.491001 59.388
-8.7329998 -25.828001 24.980999
-13.27 -3.391 88.535004
-21.549999 -22.629 61.831001
-8.1759996 -26.071001 28.934999
-12.552999 -4.4959998 89.622993
-20.105001 -23.757 61.188
-13.49 -1.683 88.417999
42.190998 -21.285999 35.924999
-25.428001 -19.77 60.256001
-24.072001 -20.444 61.418999
-2.9690001 -27.970999 17.837
-23.233 -21.516001 60.789997
43.049 -19.221001 36.432999
-23.093 -20.978001 62.011997
-2.806 -28.006001 21.025
-12.612 -3.3529999 90.608002
-24.435001 -18.859001 62.505997
42.893002 -18.264 38.446999
-21.511999 -21.470999 63.239998
-22.403 -21.369999 62.405003
-22.705 -20.307001 63.104004
-1 -28.493 22.591
-20.514 -22.424999 63.293003
-19.297001 -22.839001 63.988998
-20.145 -21.518 64.540001
-20.364 -21.163 64.695
44.445999 -16.550001 34.125
2.1029999 -29.347 20.161999
-11.696 -5.677 92.290001
6.5620003 -30.290001 20.222
-28.380999 -15.806001 54.373997
43.818001 -16.435999 37.304001
44.514999 -14.958 36.27
-13.308 0.23799999 88.481003
-27.802 -16.709 56.109997
4.7209997 -29.835001 24.944
45.464001 -14.894 30.097
-12.738 -0.052999999 90.349007
-23.901001 -18.848 55.668999
8.3360004 -30.544001 23.094
45.336998 -13.632 34.072998
8.342 -30.479 26.449001
-12.471 -0.611 92.076004
45.994999 -12.636999 31.101
-31.07 -13.961 57.753998
-29.107 -16.346001 58.451
46.320999 -10.827001 30.665998
-29.943001 -15.185 58.393002
-18.998001 4.4829998 86.822998
46.396 -9.2659998 29.131001
-17.072001 4.0660009 87.296005
-19.962999 4.4590001 85.639
-30.639 -13.509 59.106998
-18.705 5.592 86.719994
46.053001 -10.844 33.049999
46.151001 -9.8829994 32.556999
46.379002 -9.9330006 30.261
-25.656 -17.065001 62.684998
-25.202 -16.393 63.757999
46.259998 -10.241 31.647999
-4.4219999 -27.434999 24.723999
-17.906 6.5489998 86.972
-17.808001 7.809 86.618996
-3.148 -27.84 27.701
-22.681999 -18.851002 64.466003
-15.611 5.9899998 87.220993
45.517002 -12.117001 35.174
-22.692001 -16.479 66.384003
-16.805 7.7909999 87.099998
-2.2410002 -28.112 25.92
-20.733 -20.171 65.226006
-0.022 -28.713999 26.525
-13.015 2.6849999 88.173004
44.907997 -12.032001 37.788998
-14.197001 3.9200001 87.182999
0.47499999 -28.885 24.498001
2.881 -29.470001 22.778
-18.934 -17.493 69.192001
2.5710001 -29.35 26.542
-14.283999 7.8330002 87.173996
-12.58 3.7130001 88.215996
45.813999 -7.5489998 32.754997
-12.915 5.7859998 87.295006
-28.636 -15.252 60.431
-12.164001 4.3959999 88.310005
45.833 -9.2740002 34.556
45.611 -9.158 35.985001
-29.917 -12.396999 61.308998
45.451 -7.1530004 34.987
-17.734001 9.6289997 84.487
-28.216002 -13.004999 62.905998
5.8249998 -29.987 28.728001
-17.209999 9.2810001 86.425995
-26.924 -15.48 62.486
-15.164 10.086 87.117004
1.0649999 -28.979 30.136
-16.451 10.482 86.287994
5.1409998 -29.852999 31.787998
-12.303 8.4769993 87.105995
41.719002 -19.841 40.084999
39.369999 -23.119001 42.010002
-29.431 -9.6719999 63.266998
-19.33 -20.168999 25.977001
-15.795 -22.333 28.488998
-12.643 11.129001 87.131996
-17.051001 -21.563999 25.478001
-18.039 -20.98 27.919001
36.924999 -25.699001 43.995998
37.606998 -22.197001 46.537998
-27.581001 -10.054 64.801003
-11.211 5.4359999 88.788002
-21.858 -18.566999 29.499001
-20.196001 -19.636999 28.695
-11.93 3.1200001 90.155998
-25.996 -8.099 66.862
38.549 -22.728001 44.23
-11.098001 6.777 87.862999
-24.901999 -15.698001 64.655998
-23.933001 -16.162001 65.320999
-10.37 7.2329998 88.111
-18.271 -20.847 30.231998
-9.1040001 8.5369997 88.114998
-25.980999 -12.992001 65.223
-10.488 -25.064001 27.271
-23.638 -14.28 66.812004
35.303001 -24.042999 48.601002
-9.7470007 7.402 88.660004
-25.203999 -10.863999 66.805
-12.031 -24.341 31.083
-13.274 -23.693001 28.5
37.5 -20.688999 48.014
-21.925001 -14.665 68.306999
38.761002 -18.936998 47.336002
-10.645 -25.002998 29.231001
-12.305 -2.766 92.756004
-20.348 -15.362 69.393997
-11.431 -4.803 94.989998
39.335999 -16.018999 48.392002
-18.639 -14.281 71.753006
-14.573 -23.060999 32.09
37.489998 -17.612001 50.363998
-10.017 -25.267 31.350002
-17.998001 -25.011 62.118
-17.975 -23.693001 60.051998
-11.697 -2.122 96.221001
-8.6850004 -25.881001 34.021999
-16.418001 -25.483999 60.995998
-15.264 -26.471001 61.875999
-11.722 -24.522001 33.953999
-16.421999 -25.558001 63.188
-11.987 -27.948999 63.040005
-12.117001 -1.3399999 94.348999
-11.74 -27.878 61.436001
-21.636 -18.785 34.823997
-12.016 1.488 92.724998
-11.207001 2.7490001 94.638
-11.641001 0.884 95.342003
-19.686001 -19.978001 31.690002
-15.99 -26.037001 62.655003
-15.061001 -25.711 64.171997
-14.07 -26.93 63.174004
42.132999 -16.471001 42.376999
43.263 -16.054001 39.609997
-13.478 -26.160999 60.672993
-16.776999 -21.795 33.314999
-15.115001 -24.162001 59.751999
44.039001 -14.08 38.963001
-18.469 -24.08 63.381001
-10.795 -2.2539999 100.331
-17.154999 -24.754999 63.670002
-23.875 -17.389999 36.895
-17.528999 -23.715 64.598999
-23.649 -17.638 38.883999
-15.107 -24.407999 65.673004
39.223999 -19.926001 45.620003
40.709 -18.856001 43.701
-18.319 -20.942001 36.607998
-11.943999 -24.870001 67.107002
-18.358 -22.741999 64.888
-19.091002 -21.865 65.159004
-16.173 -22.975 66.422997
-10.636 1.9809999 98.714996
-12.914001 -24.002001 36.986
-9.5240002 -28.979 61.911003
41.416 -15.344001 44.835003
-9.0269995 -28.581001 63.978001
42.195 -12.499 44.869999
42.589001 -14.627 42.637001
-11.896999 -26.804001 64.860001
-11.29 -1.331 98.536995
-10.367 1.4319999 100.659
-6.131 -29.448 63.833996
-14.409 -23.177 35.309002
-6.4549999 -27.723999 66.028999
45.360001 -8.8920002 37.091
-15.992001 -22.42 38.931
-9.8400002 -26.372 66.387001
-11.017 4.263 92.497002
45.035999 -8.9450006 38.646999
-12.057 -24.479 39.077999
-7.0999999 -25.743 68.262001
-5.0409999 -25.874001 68.666
43.572998 -12.207 41.774998
-8.7630005 7.632 90.416
44.553997 -10.283 40.021999
-5.1750002 -27.157 29.494001
-18.526999 -21.115 66.367996
-7.7719998 7.7379999 93.515999
43.365002 -9.2820005 43.706001
-17.792 -20.559 67.553001
-6.9949999 -26.531 32.243
-5.4190001 9.1789999 93.410995
44.546001 -7.7350001 40.274002
44.493 -8.7160006 40.646
-9.7319994 5.7819996 93.833
-2.4189999 -28.038 30.521
44.397999 -5.8930001 39.515999
-4.3790002 -27.447001 33.201
44.178001 -8.0890007 41.695
-14.816 -22.096001 68.336006
43.829998 -7.7320004 42.796001
-6.2030001 8.835 93.263
43.917 -9.059 42.373001
-6.059 8.4969997 95.060997
-10.064 -25.349001 37.091999
43.605 -5.4130001 42.456001
-9.2789993 5.6619997 95.898003
-7.1849999 -26.489 35.424
-10.612 2.997 96.966995
39.898998 -17.734001 46.250999
-16.734001 -19.872 69.030998
-3.572 -27.743 36.215
-6.98 -26.625999 38.068001
-15.343 -19.663 70.305
-14.437 -20.559999 70.102997
-14.606 -19.021 71.432999
-12.738 -19.238001 72.514
-13.733 -19.351 71.755997
-0.597 -28.58 33.861
0.75299996 -28.924 35.851002
-12.338 -22.334 69.701996
3.26 -29.531 36.951
-9.5100002 -24.970001 68.232002
-8.4370003 5.7410002 98.722
42.219002 -10.969 45.569
40.679001 -13.52 47.347
2.6670001 -29.324001 33.411999
41.377998 -11.451 47.026001
-6.77 -24.211 70.188995
-7.5309997 7.1879997 96.743004
-9.1690006 -22.808001 70.873001
37.712002 -15.356 51.261997
-1.1559999 -28.493 38.102001
-4.3119998 -23.127998 72.095001
38.780998 -14.498 50.069
-5.6679997 -22.077 72.832001
-16.287001 11.362 78.836998
38.168999 -14.389 51.041
-12.437 -20.489 71.520004
-11.687 -19.761999 72.656998
-10.287 -20.914999 72.320999
-16.926001 10.837 83.158005
38.065998 -13.325 51.654999
-15.413 12.453 79.667
1.778 -29.264999 39.273003
-11.5 -18.945 73.339996
-15.118 12.922 81.771004
-16.195 11.722 80.913002
39.181999 -12.969999 50.124001
39.209999 -12.25 50.386997
40.555 -10.528 48.863998
-8.1269999 -21.443001 72.708
-6.5310001 -22.053999 72.632996
-14.777 13.28 83.182999
-14.906 13.024 80.132004
-9.4560003 -25.701 40.385002
-13.473001 14.386 80.276001
39.870998 -11.404 49.706001
39.252003 -10.266001 51.054001
-16.070999 -15.936 72.846001
-4.651 -27.455 38.903
42.872997 -7.9650002 45.232002
-15.609 -17.912001 71.726997
42.174999 -8.8389997 46.436001
-13.145 -17.802999 73.310005
-11.082 -17.859999 74.121994
-13.833 14.146 84.813995
-9.0100002 -19.163 74.110001
42.635998 -7.2389998 45.931
42.273998 -7.3529997 46.649002
41.692997 -8.6869993 47.421001
41.889999 -7.3540001 47.416
-9.9069996 -18.466 74.220001
-13.052999 -24.115 41.940998
43.322002 -7.3389997 44.238998
-7.9650002 -19.646 74.102997
-7.25 -19.804001 74.141006
2.8369999 -30.125 49.563999
-6.9439998 -26.698 40.654999
-5.5180001 -27.299 42.684998
42.405003 -5.1279998 46.159
-8.3760004 -26.255001 43.319
-14.669001 13.332 84.850998
-2.1140001 -28.27 39.852001
-15.74 12.319 84.521004
41.083 -8.8139992 48.519001
-4.0359998 -27.715 41.056
41.23 -9.2559996 48.105999
-0.71799999 -28.819 43.723
40.164001 -8.2369995 50.200001
0.42299998 -29.011 41.173
-13.306999 12.863 86.878998
40.848999 -6.6440001 49.476002
-14.139999 13.28 86.075996
3.6239998 -30.528999 53.413998
1.8050001 -29.472 43.428001
-8.7969999 11.52 87.084999
39.868999 -5.434 51.268997
41.724998 -5.974 47.947002
5.4070001 -31.142 56.264
-15.085 11.879 86.519005
-3.461 -28.059999 44.495003
-10.679 13.992001 87.142998
7.2260008 -31.229 51.947002
7.8280001 -31.612999 55.174
9.6479998 -32.297001 55.498993
36.785999 -15.845999 52.349003
36.967003 -14.449 52.715
12.311999 -32.603001 54.534
37.225998 -12.219 53.257
10.576 -30.881001 24.779999
-11.249001 15.933 84.737999
12.98 -31.221001 26.643
38.288002 -9.7290001 52.599998
11.27 -30.914999 28.054998
-12.691999 14.085 86.402
-12.564 15.04 85.024994
8.0129995 -30.370001 30.85
6.1820002 -32.377998 58.247997
7.9709997 -32.519001 57.204002
-8.6440001 15.18 87.017998
15.437 -31.551001 28.716
-11.217 15.3 86.198006
-9.9890003 15.809 86.405998
11.334001 -32.411999 56.991001
13.354 -32.145 56.699001
12.636001 -31.106998 31.105001
-9.3269997 16.262001 86.299004
16.380001 -31.672998 31.089001
9.9170008 -32.118 58.315002
-10.414 9.4219999 87.222
13.03 -31.307999 58.821999
-8.2019997 9.4609995 87.860001
10.095 -31.782999 52.195999
-6.7409997 9.3560009 89.375
-19.857 -13.502 71.087997
1.589 -31.865002 60.763
-1.335 -31.215 60.167
1.485 -31.652998 59.271
-24.138 -7.3239999 69.213005
-6.9789996 10.023 88.122002
-5.8540001 10.454 88.280998
-5.3470001 11.007 87.881996
5.2119999 -31.984001 60.125
0.237 -29.744999 56.132999
-6.1659999 9.8209991 89.041
0.161 -30.243999 58.542999
-6.5929999 9.1599998 90.745003
-21.966 -11.091001 70.231995
2.75 -30.550999 57.351002
15.305 -31.525999 33.833
13.305 -31.238001 34.572998
3.7320001 -32.019001 58.531002
-19.708 -11.236 72.434998
17.545 -31.918001 36.123997
-3.3140001 -30.897001 60.894001
18.746 -32.024998 33.241997
-1.6129999 -30.948999 62.383999
-19.370001 -9.7859993 73.138
-4.7729998 13.834 87.066002
0.36399999 -30.962999 62.450001
23.365 -32.772999 37.626999
-1.1370001 -29.774 64.144997
-7.0429997 12.943 87.057999
21.285 -32.441002 35.875
1.6899999 -30.027 63.709995
-20.229 -8.2539997 72.93
-6.881 15.441 87.117996
-19.275 -7.928 74.844002
-4.0690002 11.536 87.748001
-2.7490001 11.809 87.745003
-12.698 -17.852999 75.848999
-10.667 -19.118999 75.749001
9.8320007 -30.684 34.097
6.7150002 -30.780001 61.686001
-2.227 13.337 87.116005
6.085 -30.062 35.698002
8.1169996 -31.819 59.634998
-12.106999 -18.307001 78.284004
9.9830008 -30.809 60.734997
9.3329992 -29.917 62.367001
12.291 -29.494001 62.014999
-9.0079994 -20.029999 78.790001
-12.367 15.257 82.117996
11.398 -29.162001 62.735001
4.3509998 -30.933001 61.935001
-8.566 17.200001 82.334999
4.6329999 -29.897001 39.446999
9.0120001 -30.629999 37.671001
6.8540001 -30.385 40.559002
8.0979996 -28.578001 64.507004
7.8659997 -27.016001 66.270996
10.269 -30.962 40.327999
9.901 -28.686001 63.818001
8.1700001 -30.785999 43.042999
12.82 -30.15 60.952999
-13.379 -17.425001 81.178001
-13.618 -17.094999 80.199005
-14.799 -15.833 80.008003
-9.6079998 16.866001 84.441994
12.488 -28.255999 63.317001
15.386001 -31.660002 37.763
12.058 -31.132999 37.586998
-11.431 -18.855 80.372993
10.229 -27.159 65.234001
13.401 -26.063002 64.773003
-4.8520002 18.447001 80.151001
-3.9579999 18.686001 81.817001
16.392 -31.231998 57.944
13.023 -31.497002 41.800999
17.044001 -32.301998 55.073997
-4.566 18.577 83.626999
18.751999 -31.461998 56.398998
-2.4490001 18.803001 85.027
13.847 -31.816999 44.675999
-18.774 -13.052 72.355003
20.662001 -30.948 56.363998
21.485001 -30.379 56.708
-16.957001 -13.565001 73.421997
23.759001 -30.528 54.888
23.187 -30.441999 55.452
16.82 -32.016003 40.801998
-2.1520002 18.893999 82.500999
-16.49 -13.843 75.568993
-0.98400003 18.953999 83.830994
4.2199998 -30.022999 43.131001
-13.891001 -15.595 74.079002
14.978 -29.681002 60.830997
-7.7059999 17.601 85.078003
16.831999 -30.329 59.228001
-15.231 -14.16 74.174004
-6.263 18.151001 82.557999
19.554001 -30.410999 57.817001
6.8640003 -30.650999 44.893002
-5.6560001 18.223001 85.160004
18.370001 -30.410999 58.393002
18.489 -29.667999 59.341
-14.783 -15.711 75.296997
-15.153 -15.580999 76.893997
20.949001 -26.735001 60.424999
-4.1430001 18.137001 86.016998
-14.212 -16.542999 77.178001
21.988001 -28.775999 58.254997
9.5220003 -31.205 45.926998
4.4359999 -30.243 46.056
-7.1089997 17.068001 86.411995
-15.869001 -13.577001 74.491005
-5.211 17.208 86.822006
-18.286999 -12.174 73.122002
-18.889 -11.265 73.039001
-18.462 -10.613 73.495003
-2.4979999 15.481 87.043999
-2.865 17.361 86.870995
-17.849001 -10.202 74.185997
-16.289999 -12.805 74.169998
-16.792 -12.286 74.386002
26.543001 -28.454 54.994999
-17.236 -11.268 74.107994
5.9839997 -30.813 49.600998
7.1849999 -30.947001 47.973
25.867001 -26.814001 56.928001
27.543999 -28.396999 54.150997
24.98 -29.181 55.631001
-2.4219999 18.362001 86.041
-17.792 -11.780999 75.462997
-17.291 -12.697001 75.651001
-0.98000002 17.291 86.946999
13.936 -29.351999 61.595997
11.729 -31.691 47.449997
16.737999 -29.372 60.485001
-15.882 -14.765 75.988998
18.014 -32.472 44.752998
-15.299 -15.394 77.941002
-0.56599998 18.815001 85.493996
14.566999 -28.384001 62.343002
-14.771 -15.913 78.588997
-14.168 -16.49 79.878006
-6.5029998 8.9779997 91.871002
-17.078999 -13.231 77.985001
15.231 -32.404999 48.794003
-5.0889997 9.7690001 90.954994
-16.337 -14.13 79.731003
11.488 -31.853001 49.625
16.550001 -25.972 63.299999
-15.089 -15.525001 81.407005
18.557001 -27.303999 61.368
-18.415001 -10.49 75.271004
13.151999 -32.303001 51.784
6.9289999 -12.591 87.709999
-18.475 -8.8070002 74.100998
20.134001 -24.733999 62.112999
-18.309 -9.7160006 74.548996
15.156 -32.644001 53.459
9.0410004 -10.292 88.008003
8.0230007 -11.502 87.890999
-18.820002 -9.5780001 75.227997
-18.687 -10.476 76.493004
23.934 -32.956001 40.186001
5.927 -11.714999 89.795998
20.671999 -32.563999 40.834
15.382 -23.316 65.968994
-11.646 -17.476 74.295998
6.632 -10.745 91.969994
-12.738 -16.674999 74.212997
7.3839998 -10.918 88.946999
8.8369999 -9.0549994 89.780006
-3.234 -30.130999 63.541004
25.898001 -33.146999 42.072002
-16.061001 -14.565001 85.955002
-12.965 -17.897001 83.524002
-14.288 -16.442999 81.717003
-15.362 -15.281 82.125
23.160999 -33.042 43.558002
-14.809999 -16.078999 83.130997
0.565 -28.423 65.959
-15.169999 -15.836 85.124001
24.031 -33.101002 45.799999
-15.73 -15.226 84.045998
21.34 -32.991001 45.867001
3.395 -27.722 66.634003
-10.110001 -19.66 83.795006
27.073999 -33.162003 39.868
-1.929 -27.452999 67.204994
28.337999 -32.970001 42.749001
-8.6089993 -19.843 86.300003
-13.574 -17.353001 85.415001
15.069 -14.259001 80.379997
26.605999 -32.994999 45.056999
15.876 -12.73 79.025002
-10.622999 -19.358 85.236
-0.73299998 -25.629002 69.519997
25.155001 -32.838001 47.758003
-10.77 -18.619999 86.372002
-9.6750002 -19.091999 86.471001
28.204 -32.106003 47.192997
16.202002 -12.63 82.249001
2.223 -26.348 68.446999
2.9390001 -24.436001 70.628998
16.968 -10.802 80.844002
-0.036000002 -24.243999 71.186996
18.882999 -32.834999 47.851002
4.2620001 -29.166 64.597
-15.007 -15.282001 86.561996
-13.945999 -15.671 87.084999
4.9790001 -27.066999 67.042999
18.903 -32.901001 50.005997
6.2270002 -26.498999 67.369995
6.2400002 -27.841 65.881996
-14.75 -13.634 87.301003
22.499001 -33.073997 47.375999
4.756 -25.810999 68.584999
-13.040999 -17.013 86.542
13.998 -15.59 84.616997
15.464001 -13.902 84.031998
15.517 -12.624001 86.436005
-11.272 -15.431 87.490997
-11.329 -17.545 87.086998
13.843 -14.948 86.264
14.379999 -14.232 86.32
13.063 -14.403 87.027
9.2340002 -25.759001 67.039993
14.657001 -13.34 86.682999
-17.434 -13.026 80.103004
17.17 -32.744999 52.098999
19.59 -32.501999 53.382
21.031 -32.992001 49.769001
22.849998 -32.798 49.947998
17.048 -11.16 85.437996
21.384001 -32.260998 53.029999
17.185999 -11.141999 83.465004
18.178999 -9.0799999 84.324997
-15.85 -14.675 80.375
11.846001 -23.778999 67.75
22.172001 -30.882 55.502003
15.597 -11.649 86.788002
16.806002 -10.548 86.292
5.1129999 -24.380001 70.152
23.413 -31.947002 52.431
7.914 -23.993 69.574997
16.149 -11.056001 86.627998
-17.323 -13.217 81.515999
-16.910999 -13.740999 82.140999
-18.108 -12.111 83.475998
-16.360001 -14.438 82.994995
17.195 -9.4349995 86.444
4.3310003 -23.545 71.330002
25.153 -32.188 50.25
6.7179999 -22.463999 71.776001
27.102999 -31.720001 49.481998
28.528999 -30.916 49.704998
27.157999 -30.842001 51.336002
27.864 -30.806999 50.659
-18.880001 -10.333 79.132996
26.195999 -30.988001 52.037003
-19.511 -8.5739994 77.568001
11.202 -22.409 69.565994
25.802 -30.423 53.351002
24.413 -30.799 53.952
10.499 -20.878 71.506004
-19.974001 -7.7020001 79.954994
-13.922 -23.49 8.7919998
-18.803001 -10.792 81.625
-14.747001 -22.993 10.297001
-3.2540002 -24.173 71.060005
18.594 -7.4949999 79.345001
-1.4430001 -22.573 72.980003
-15.91 -22.323999 11.988
-13.629 -23.583 12.384999
-4.085 -22.299 72.940002
-11.036 -24.851 12.427999
-17.354 -13.123 85.470993
-2.921 -22.556999 72.866997
19.492001 -2.7850001 79.462997
19.568001 -2.619 80.689995
-10.366 -25.172001 14.594
-12.563001 -24.111 14.229
-16.689001 -13.012 86.616997
18.315001 -8.5570002 81.711998
-17.574999 -11.485001 86.652
19.046999 -6.5380001 83.194
-7.1470003 -20.700001 75.802994
-3.1900001 -21.274 75.255997
-17.892 -21.157 13.301
-19.188999 -9.993 84.264
-4.7459998 -21.344 76.238998
-1.2140001 -21.067001 74.582001
17.77 -8.5869999 86.170006
-0.42200002 -21.657999 76.640999
-15.319 -22.652 14.27
18.334 -7.9119997 85.653999
-16.047001 -22.199999 16.897001
-18.677 -10.599 85.796997
18.475 -6.8129997 85.961998
18.617001 -5.7049999 86.289001
0.76600003 -22.066999 73.311005
2.7490001 -23.042002 72.196999
2.467 -22.41 72.910004
19.424002 -4.3049998 81.237
-0.259 -22.316 73.187996
19.568001 -2.98 82.588997
-0.024 -20.927999 74.069
1.5549999 -20.762001 74.164001
19.452 -4.4429998 84.100998
-9.0309992 -25.786999 11.717
19.252001 -4.5500002 85.380005
-5.7680001 -27.070002 12.801
-5.1469998 -21.664 73.267998
-4.6780005 -20.642 74.501999
-6.0680003 -20.146999 74.189995
-20.299 -6.3399997 85.585999
-3.8889999 -20.739 74.069
-2.4230001 -20.854 74.148003
19.631001 -2.8800001 84.112999
19.667 -1.886 84.819
8.217 -14.397 87.223
-15.983001 -13.913 86.678993
9.4429998 -11.813 87.289001
-0.116 -21.719999 78.396996
11.175 -14.684 87.227997
-8.29 -26.07 14.904
-10.228 -25.23 17.844002
13.588 -11.65 87.186996
-14.525 -11.718 87.335999
-17.716 -21.245001 15.636001
-18.132 -20.969 17.835001
4.79 -21.419001 73.211998
2.609 -20.861 73.918999
3.9169998 -20.323 74.251007
5.0079999 -20.146999 74.459999
6.9439998 -20.439001 73.358002
5.5030003 -19.871 74.333
11.296 -11.448999 87.213997
-16.449001 -21.957998 19.427
-8.5929995 -14.556 87.360001
6.6209998 -19.414 74.114006
13.469001 -8.8190002 87.186005
-13.95 -23.355 17.116999
9.7480001 -19.689999 72.939003
-9.401 -13.104 87.529999
10.547 -8.8079996 87.808998
-12.153 -13.246 87.356003
11.586 -9.1260004 87.251999
-18.285999 -20.848 20.688999
8.0080004 -18.778 74.086998
8.0110006 -19.045 74.634003
9.224 -18.154001 74.028999
11.207999 -7.5139999 87.834
12.519 -6.6960001 87.310997
11.678 -6.1030002 87.961006
-18.768999 -20.569 23.117001
-14.123 -8.342 87.191002
1.925 -21.300999 75.447998
-12.556 -9.7489996 87.337997
4.8730001 -20.681999 75.438995
6.211 -20.233 75.459999
4.6149998 -20.904001 76.964996
5.816 -20.470001 76.275002
15.142 -9.4189997 87.165993
2.7839999 -21.365 78.032997
-10.181001 -11.442 87.894997
-10.417999 -9.9090004 88.393005
-8.9969997 -11.159 88.730003
3.822 -21.283001 79.724998
4.619 -20.944 78.612
5.0630002 -30.123999 15.898001
-18.200001 -9.4729996 86.967995
-17.862999 -10.233 86.955002
9.9799995 -7.527 89.313995
7.9790001 -19.608 76.367996
-16.507 -10.465 87.328003
6.7839999 -20.082001 78.123001
8.6589994 -30.802 17.262001
10.37 -30.974001 20.750999
10.492 -18.028 75.457001
-19.719999 -8.3850002 85.501999
-18.803001 -8.5230007 86.801003
8.8499994 -8.5369997 91.813995
-19.363998 -6.9450002 86.786003
8.9640007 -19.029999 78.546997
6.9579997 -20.007999 80.196999
10.333 -5.9899998 91.514999
-20.423 -4.4089999 86.144997
14.259999 -21.504999 68.362
12.134 -4.8899999 87.894997
-18.772001 -4.2190003 87.284996
-17.459 -8.9260006 87.283997
12.353999 -4.0389996 87.879005
-16.651999 -7.5409999 87.334
14.752 -4.7030001 87.121002
11.861 -17.207001 77.387001
12.295 -31.229 22.529001
12.849 -3.931 87.529007
-19.099998 -5.5900002 87.18
11.056001 -18.014999 79.914001
15.514 -6.6659999 87.190002
16.938999 -8.4980001 86.884003
17.828001 -6.8280001 86.68
-28.269001 -6.4309998 64.903999
-30.164999 -4.401 63.424995
17.433001 -31.955 24.318001
17.265999 -4.777 87.050995
13.539001 -31.351999 24.597
23.501999 -25.628 59.477001
-12.708 -5.9000001 88.450996
15.163 -2.7030001 87.096001
-11.537 -8.2729998 88.354996
13.124001 -2.0979998 87.482994
-11.693 -7.0710001 89.294998
27.098 -25.291 56.938
13.968 -0.15799999 87.188995
15.459001 -0.278 87.089005
18.478001 -4.8540001 86.502998
28.938999 -24.215 56.017998
18.684999 -3.082 86.571999
-9.7439995 -10.108 89.083
30.528 -23.503 54.953999
18.301001 -3.8199999 86.778
31.278 -23.671 54.037998
-8.9069996 -10.357 90.416
19.375999 -3.3400002 85.395004
19.586 -1.7920001 85.317001
-10.754001 -8.8619995 88.542
32.278 -22.019999 54.095997
18.446001 -2.3380001 86.843994
-10.001 -9.2270002 89.801994
-9.7489996 -9.1359997 91.100998
23.973999 -27.205 58.106998
16.572001 -31.771 26.586
